# .PCD v0.7 - Point Cloud Data file format
VERSION 0.7
FIELDS x y z
SIZE 4 4 4
TYPE F F F
COUNT 1 1 1
WIDTH 388
HEIGHT 1
VIEWPOINT 0 0 0 1 0 0 0
POINTS 388
DATA ascii
-1.3145399 -0.52831244 2.3088648
-1.248794 -0.52865946 2.3103817
-1.1500219 -0.529181 2.3126597
-1.0510569 -0.52970326 2.3149433
-0.94982624 -0.53023773 2.3172781
-0.84916502 -0.52932096 2.3195989
-0.74799842 -0.52847826 2.3219314
-0.64906865 -0.52763665 2.3242123
-0.54911071 -0.52816057 2.3265181
-0.4489539 -0.52868485 2.3288288
-0.34937865 -0.52775097 2.3311241
-0.25014043 -0.52762341 2.3334131
-0.15148935 -0.5281381 2.3356891
-0.050541222 -0.52866429 2.3380177
0.050608445 -0.52919215 2.3403511
0.14953879 -0.52660072 2.3426304
0.24927878 -0.52600294 2.3449309
0.35102782 -0.52652925 2.3472774
0.45085415 -0.52704591 2.34958
0.55087787 -0.52756357 2.3518879
0.65012616 -0.52691978 2.3541768
0.74937475 -0.5264675 2.3564651
0.84998578 -0.52698582 2.3587861
0.95137626 -0.52711326 2.3611248
1.04965 -0.5258854 2.3633897
1.1477598 -0.52559489 2.3656523
1.2500951 -0.52478087 2.368012
1.3343819 -0.52521157 2.3699565
-1.3144921 -0.44925758 2.3087804
-1.2487484 -0.44955266 2.3102965
-1.1499811 -0.44999599 2.3125756
-1.0510184 -0.45044029 2.3148584
-0.94979167 -0.45089442 2.317194
-0.84836173 -0.45134994 2.3195333
-0.74927032 -0.45111686 2.3218191
-0.64869034 -0.44970077 2.324137
-0.5490908 -0.44850084 2.3264322
-0.44893774 -0.44894636 2.3287435
-0.34858558 -0.44939265 2.3310583
-0.25013167 -0.44983038 2.3333292
-0.15148388 -0.45026922 2.3356047
-0.050539397 -0.45071813 2.3379345
0.050606668 -0.45116791 2.3402667
0.14953925 -0.4498772 2.3425484
0.2492701 -0.44993868 2.3448482
0.35101569 -0.450389 2.3471947
0.45134798 -0.4496142 2.3495083
0.55085778 -0.44915465 2.3518028
0.65107322 -0.44959602 2.3541152
0.7493484 -0.45002913 2.3563826
0.84995538 -0.45047241 2.3587029
0.95046228 -0.45055774 2.3610208
1.0496116 -0.44922245 2.3633063
1.1486564 -0.44965687 2.3655915
1.2500526 -0.45010144 2.3679304
1.3343356 -0.45047113 2.3698747
-1.314432 -0.34940672 2.3086739
-1.248691 -0.34963629 2.3101909
-1.1499282 -0.34998095 2.312469
-1.0509697 -0.35032603 2.3147516
-0.94974792 -0.3506799 2.3170865
-0.84832251 -0.35103366 2.3194261
-0.74876797 -0.35138175 2.3217227
-0.64936197 -0.35130659 2.3240161
-0.54906547 -0.34998283 2.3263271
-0.44839689 -0.34943593 2.3286488
-0.34856945 -0.34857827 2.3309498
-0.25011989 -0.34891745 2.333221
-0.15147689 -0.34925815 2.3354964
-0.050537061 -0.34960639 2.3378243
0.050604243 -0.34995487 2.3401582
0.14983365 -0.3502976 2.342447
0.24925879 -0.35064006 2.3447402
0.35099939 -0.3509917 2.3470879
0.45030463 -0.35015953 2.3493767
0.55083257 -0.34956148 2.3516943
0.65104347 -0.34990522 2.3540068
0.74931365 -0.35024235 2.3562744
0.84991658 -0.35058761 2.3585935
0.95088619 -0.35074133 2.3609235
1.049564 -0.34914243 2.3631976
1.148603 -0.34948042 2.3654816
1.2499945 -0.34982574 2.3678205
1.3342738 -0.35011309 2.369765
-1.3153305 -0.25122654 2.308547
-1.2496812 -0.24921662 2.3100586
-1.1498743 -0.24997491 2.3123612
-1.050921 -0.25022161 2.3146453
-0.94970369 -0.2504741 2.3169796
-0.84828317 -0.25072691 2.3193188
-0.74873316 -0.25097531 2.3216147
-0.6489858 -0.25122389 2.323916
-0.5490405 -0.25147322 2.3262215
-0.4494133 -0.25086877 2.3285193
-0.34855345 -0.24987304 2.3308439
-0.25010845 -0.25011647 2.3331153
-0.15147001 -0.25036025 2.3353901
-0.050184578 -0.24892859 2.3377244
0.050601926 -0.24875174 2.3400488
0.14982653 -0.24899511 2.3423378
0.24924694 -0.24923894 2.3446305
0.35098311 -0.24948838 2.3469779
0.4507966 -0.24973316 2.3492808
0.55080736 -0.24997841 2.3515868
0.65101355 -0.25022408 2.353899
0.74927932 -0.25046504 2.3561647
0.84987748 -0.25071168 2.3584859
0.95050806 -0.2507804 2.3608072
1.049515 -0.2490721 2.3630881
1.1485502 -0.24931289 2.3653724
1.2499363 -0.24955946 2.3677113
1.3342123 -0.24976423 2.3696547
-1.3163637 -0.14972898 2.3084142
-1.2506299 -0.14982727 2.3099296
-1.1498208 -0.14997816 2.3122559
-1.0508727 -0.15012622 2.3145373
-0.94965982 -0.1502776 2.3168719
-0.84824425 -0.15042928 2.3192117
-0.74869835 -0.15057825 2.3215075
-0.64895582 -0.15072756 2.3238082
-0.5490154 -0.15087707 2.3261137
-0.44887596 -0.15102676 2.3284242
-0.34853774 -0.15117703 2.3307371
-0.25009707 -0.15132432 2.3330081
-0.15146303 -0.15147182 2.3352835
-0.050891306 -0.14997 2.3376014
0.050599612 -0.14966589 2.3399432
0.14981969 -0.1498123 2.342231
0.2492356 -0.14995903 2.3445234
0.3509669 -0.15010905 2.3468695
0.45077568 -0.15025643 2.3491721
0.55078179 -0.15040389 2.3514788
0.65098339 -0.15055184 2.3537903
0.74924427 -0.15069667 2.3560562
0.84983844 -0.1508452 2.3583772
0.9506287 -0.15099379 2.3607016
1.0494664 -0.14901075 2.3629787
1.1484972 -0.14915501 2.3652637
1.2498786 -0.14930227 2.3676021
1.3341508 -0.14942485 2.3695457
-1.3163031 -0.049907621 2.3083076
-1.2505727 -0.049940422 2.3098238
-1.1497685 -0.049990691 2.3121483
-1.0456136 -0.047503538 2.3213899
-0.95150447 -0.07751894 2.3224173
-0.85034287 -0.077636823 2.3234739
-0.7488988 -0.077544183 2.3250015
-0.64904934 -0.077592164 2.3261194
-0.54910314 -0.077640481 2.3272491
-0.44889608 -0.077612445 2.3285158
-0.34852594 -0.077685446 2.3306589
-0.25008854 -0.077761099 2.3329296
-0.15145794 -0.077836931 2.3352041
-0.050530735 -0.077914536 2.3375325
0.050597936 -0.077992283 2.3398647
0.14981475 -0.078068547 2.3421524
0.24922724 -0.078144975 2.3444467
0.35095543 -0.078223154 2.346792
0.45936677 -0.067451239 2.3542025
0.55075699 -0.05083872 2.3513713
0.65095359 -0.050888672 2.3536818
0.7492103 -0.050937671 2.355948
0.84979892 -0.050987825 2.3582685
0.95058465 -0.051038075 2.3605936
1.0494182 -0.048958655 2.36287
1.1484438 -0.049006011 2.365154
1.2498218 -0.049054459 2.3674929
1.3340888 -0.049094729 2.3694365
-1.3162421 0.049904563 2.3082013
-1.2505146 0.049937367 2.3097177
-1.1497163 0.049987599 2.3120425
-1.0430015 0.050059319 2.3248732
0.49228805 0.050299361 2.3653181
0.55073106 0.050835557 2.3512604
0.65092301 0.050885491 2.3535717
0.74917513 0.050934497 2.3558369
0.84975898 0.050984625 2.3581572
0.95054007 0.051034883 2.360482
1.0492018 0.049147945 2.3627591
1.1483921 0.049003031 2.3650472
1.2497647 0.049051482 2.3673856
1.3340282 0.049091749 2.369329
-1.3161818 0.14970759 2.3080959
-1.2504569 0.14980583 2.3096113
-1.1496625 0.14995657 2.3119352
-1.0430928 0.15010719 2.3250175
0.49206725 0.14996466 2.364948
0.55070531 0.15038234 2.3511531
0.65089327 0.15053006 2.3534636
0.74914074 0.15067501 2.3557293
0.84971994 0.15082343 2.3580489
0.95049649 0.15097208 2.3603733
1.0494872 0.14916778 2.3626578
1.148339 0.14913349 2.364939
1.2497072 0.14928095 2.367276
1.3339667 0.14940342 2.3692195
-1.3161212 0.24950135 2.3079891
-1.2503996 0.24966517 2.3095057
-1.14961 0.24991649 2.3118296
-1.0430911 0.25016654 2.3251753
0.49194098 0.250011 2.3639894
0.55068028 0.24991995 2.3510449
0.65086317 0.25016555 2.3533556
0.74910659 0.25040632 2.3556216
0.84968078 0.25065294 2.3579409
0.95045263 0.25089988 2.3602641
1.0489128 0.24949132 2.3625362
1.1488661 0.24966262 2.3648415
1.2501949 0.24910446 2.3671789
1.3339052 0.24970599 2.3691094
-1.3160604 0.34928614 2.3078825
-1.250342 0.3495158 2.3093989
-1.1495566 0.34986687 2.3117225
-1.0431789 0.3502346 2.3251729
0.4917376 0.3499952 2.3633528
0.55065501 0.3494482 2.3509369
0.65083331 0.34979171 2.3532472
0.74907154 0.35012811 2.3555121
0.84964162 0.35047343 2.3578331
0.95040864 0.3508186 2.3601561
1.04958 0.34947756 2.3624442
1.1503878 0.34937418 2.3647699
1.251749 0.3497192 2.3671064
1.333843 0.34999913 2.3690004
-1.3160008 0.44906157 2.3077772
-1.2502848 0.44935623 2.3092918
-1.1495035 0.4498086 2.3116159
-1.0432668 0.45017272 2.3252249
0.49164078 0.44945896 2.362185
0.55062991 0.44896773 2.3508284
0.65080321 0.44940883 2.3531387
0.74903727 0.4498415 2.3554046
0.84960246 0.45028442 2.3577237
0.95036513 0.45072806 2.3600469
1.0487279 0.4497003 2.3623161
1.150335 0.44947931 2.3646605
1.2516912 0.44992322 2.3669972
1.3337816 0.45028323 2.3688908
-1.3159388 0.54882759 2.3076701
-1.2502276 0.5491882 2.3091855
-1.1494514 0.54974055 2.3115098
-1.0432225 0.55018735 2.3254957
0.49145672 0.55017024 2.3614695
0.55060375 0.55059499 2.350719
0.65033442 0.55050761 2.3530185
0.74900252 0.54954529 2.3552957
0.84956378 0.55008632 2.3576143
0.9503209 0.55062848 2.3599379
1.0495712 0.54966319 2.3622284
1.1502818 0.54957461 2.3645504
1.2516335 0.55011773 2.366888
1.3337197 0.55055755 2.3687806
-1.3158789 0.64858496 2.3075643
-1.2501694 0.64901078 2.3090785
-1.1493981 0.64966369 2.3114021
-1.0433544 0.6502133 2.3254805
0.49124178 0.64993244 2.3611312
0.55057883 0.650096 2.3506114
0.65118903 0.65007329 2.3529317
0.74896777 0.64923972 2.3551877
0.8495242 0.64987916 2.3575053
0.95027715 0.65051967 2.3598287
1.048576 0.64987093 2.3620973
1.1502292 0.64966118 2.3644416
1.2515757 0.6503033 2.3667796
1.3336583 0.6508233 2.3686714
-1.3158184 0.7483328 2.3074582
-1.2501121 0.74882388 2.3089724
-1.1493441 0.74957788 2.3112965
-1.0433525 0.75017673 2.3255968
0.49114388 0.74966276 2.3599546
0.55055308 0.74958771 2.350503
0.65071297 0.75032383 2.3528123
0.74853379 0.75050801 2.3550689
0.84948552 0.74966359 2.3573973
0.95023328 0.75040191 2.35972
1.0495312 0.74981314 2.3620114
1.1501756 0.7497375 2.3643317
1.2515174 0.75047863 2.3666699
1.3333741 0.74938613 2.3685584
-1.3159014 0.84898138 2.3073478
-1.2500539 0.84862834 2.3088663
-1.149291 0.84948218 2.3111904
-1.0434394 0.85015035 2.3256333
0.49102268 0.85066295 2.3595414
0.55004799 0.85049701 2.3503821
0.65068328 0.8499046 2.352704
0.74930632 0.85015506 2.3549783
0.84944636 0.8494373 2.3572888
0.95018959 0.85027426 2.3596115
1.0484576 0.85000312 2.3618793
1.1501229 0.84980625 2.3642235
1.2514602 0.8506459 2.3665597
1.3337542 0.84960717 2.3684592
-1.3155476 0.94867116 2.3072479
-1.2499969 0.94842303 2.3087602
-1.1492385 0.9493773 2.3110836
-1.0454854 0.94731659 2.3206418
-0.95076895 0.96137124 2.3296454
-0.85049862 0.96089143 2.3319011
-0.74881935 0.96088839 2.3339143
-0.64908731 0.96166331 2.3356769
-0.5491094 0.96232647 2.3375614
-0.44959584 0.96223211 2.3395467
-0.34880832 0.96197742 2.3417056
-0.24984153 0.9624567 2.3437343
-0.15084304 0.96345443 2.3451269
-0.050800562 0.96375519 2.3469925
0.049789876 0.96370596 2.3475065
0.14974853 0.96459579 2.3487201
0.24938315 0.96554923 2.3503416
0.35071433 0.96638203 2.3521726
0.4540869 0.96048522 2.3546016
0.55098891 0.94993883 2.3502979
0.65065295 0.94947559 2.3525958
0.7488637 0.9503895 2.3548608
0.84889138 0.95001447 2.3571675
0.95014572 0.95013762 2.3595033
1.0494595 0.94992739 2.3617933
1.1500695 0.9498648 2.364114
1.2509581 0.95016956 2.3664408
1.3334746 0.94943106 2.368345
-0.83537167 1.000363 2.3182673
-0.74830085 1.0012294 2.3202746
-0.64861083 1.0022211 2.3225729
-0.54872286 1.0032147 2.3248756
-0.44028819 1.002896 2.3273771
-0.34835219 1.0031103 2.3294971
-0.24996381 1.0040871 2.3317652
-0.15138228 1.0050657 2.334038
-0.046297375 1.0054075 2.3364611
0.050572649 1.0049648 2.338696
0.14973988 1.0059469 2.3409822
0.24910249 1.0069309 2.3432727
0.35077959 1.0079387 2.3456163
0.45053524 1.0068122 2.3479187
0.55048788 1.0078009 2.3502228
0.65063536 1.0087907 2.3525321
0.74884355 1.0097615 2.3547955
0.85198754 1.0093468 2.3571756
0.95011973 1.0096266 2.3594384
1.0489055 1.0106014 2.3617156
1.1500363 1.0115989 2.3640478
1.2533485 1.0118843 2.3664298
1.3334363 1.0112756 2.3682771
-1.0112617 -0.028456263 2.429898
-0.2278285 -0.055837478 2.4792891
-0.15135694 -0.055631649 2.4701498
-0.050974607 -0.055361461 2.458153
0.050639208 -0.05508792 2.4460075
0.15125297 -0.054816764 2.4339674
0.2508809 -0.054548226 2.4220436
0.34953746 -0.054282293 2.4102361
0.4793202 -0.030129377 2.447561
-1.0114998 0.050361484 2.4304695
0.48838913 0.049947582 2.4528682
-1.0117942 0.15038887 2.4308684
0.48811999 0.15018693 2.4521105
-1.012102 0.25010601 2.4318798
0.48787585 0.25033459 2.4502897
-1.0124006 0.34988809 2.4324801
0.48761252 0.34992948 2.4493599
-1.0127032 0.44972664 2.4332471
0.4873575 0.44943094 2.4480858
-1.0130023 0.54962683 2.4338484
0.48710579 0.54924792 2.4466217
-1.0133077 0.64958882 2.4346983
0.48684934 0.64942801 2.4453325
-1.0136093 0.74997044 2.4353454
0.48659587 0.74991524 2.4438775
-1.0138515 0.84766889 2.4337249
0.48633477 0.85031039 2.4427471
-1.0122514 0.92645746 2.4308107
-0.95083088 0.94206977 2.4321113
-0.85030317 0.94235539 2.4328494
-0.75008619 0.94263941 2.4330447
-0.6498152 0.94292504 2.43432
-0.54827762 0.94321507 2.4365244
-0.44990975 0.94349927 2.4413228
-0.34979105 0.94378376 2.4420605
-0.24992783 0.94406742 2.4428644
-0.14999577 0.9443512 2.4436743
-0.050022673 0.94463497 2.4441171
0.051507298 0.94491911 2.4410055
0.15002252 0.94519687 2.4401858
0.25107473 0.94548869 2.4449604
0.34979936 0.9457708 2.4471087
0.45284575 0.94078773 2.4463928
