# .PCD v0.7 - Point Cloud Data file format
VERSION 0.7
FIELDS x y z
SIZE 4 4 4
TYPE F F F
COUNT 1 1 1
WIDTH 383
HEIGHT 1
VIEWPOINT 0 0 0 1 0 0 0
POINTS 383
DATA ascii
-1.3164614 -0.52283555 2.3122387
-1.2506064 -0.52317339 2.3137329
-1.1496097 -0.52369189 2.3160262
-1.0494819 -0.52285808 2.3182993
-0.94908881 -0.52263039 2.3205781
-0.8487016 -0.52153754 2.3228559
-0.74985713 -0.52155423 2.3250999
-0.64994979 -0.52206308 2.3273675
-0.5498476 -0.52257282 2.3296399
-0.45051786 -0.5225063 2.3318949
-0.34905511 -0.52149236 2.3341975
-0.2483643 -0.522003 2.3364832
-0.14958027 -0.52250403 2.3387258
-0.050058603 -0.5227223 2.3409853
0.050671421 -0.52140862 2.3432708
0.15003051 -0.52191049 2.3455269
0.24903257 -0.52058244 2.3477731
0.3493247 -0.52079982 2.35005
0.44926101 -0.52130264 2.352318
0.54938936 -0.5218063 2.3545914
0.64971232 -0.52231115 2.3568687
0.75022835 -0.52281672 2.3591506
0.84866339 -0.52183723 2.3613846
0.94969803 -0.51956105 2.363677
1.0507962 -0.52006567 2.3659723
1.1499336 -0.52056032 2.3682225
1.2492608 -0.521056 2.3704772
1.3336165 -0.52147686 2.3723929
-1.316445 -0.44992471 2.3122106
-1.2505897 -0.45021561 2.3137054
-1.1495954 -0.45066184 2.3159978
-1.0484017 -0.45110872 2.3182948
-0.94907761 -0.4515475 2.3205497
-0.8499608 -0.45043242 2.3227987
-0.74937958 -0.44891849 2.3250813
-0.64994174 -0.44867522 2.3273385
-0.54984063 -0.44911337 2.3296106
-0.44954342 -0.44955221 2.3318887
-0.34905091 -0.44999197 2.3341689
-0.24836108 -0.45043263 2.3364546
-0.14957836 -0.45086515 2.3386974
-0.050836384 -0.4510431 2.3409386
0.050670866 -0.44963023 2.3432424
0.15002872 -0.45006302 2.3454981
0.24957922 -0.45049673 2.3477576
0.34961501 -0.44917068 2.350028
0.44925526 -0.44924715 2.3522904
0.54938239 -0.44968116 2.3545632
0.64970374 -0.45011628 2.3568392
0.75021935 -0.4505522 2.3591216
0.84834385 -0.45034868 2.3613486
0.94968623 -0.44928735 2.3636489
1.050783 -0.44972366 2.3659451
1.1499202 -0.4501515 2.3681936
1.2492459 -0.45058003 2.3704505
1.3336012 -0.45094392 2.3723648
-1.3164227 -0.3499355 2.3121703
-1.2505676 -0.35016179 2.3136659
-1.1495761 -0.3505089 2.3159585
-1.048384 -0.3508566 2.3182554
-0.94906127 -0.35119793 2.3205109
-0.84954494 -0.35153937 2.3227692
-0.7503103 -0.35050327 2.3250213
-0.64993083 -0.35012871 2.3272991
-0.54953945 -0.34871015 2.3295779
-0.44953659 -0.34871233 2.3318479
-0.34904492 -0.3490532 2.3341284
-0.24835688 -0.34939542 2.3364143
-0.14957587 -0.34973043 2.3386564
-0.050603699 -0.35006639 2.3409042
0.050669964 -0.35041019 2.3432031
0.15002611 -0.35074794 2.3454578
0.249575 -0.35108551 2.347718
0.34901157 -0.34968755 2.3499744
0.44924808 -0.34964412 2.3522506
0.54937327 -0.34998202 2.3545229
0.64969331 -0.35032031 2.3568003
0.75020623 -0.3506594 2.3590822
0.84917915 -0.35042086 2.3613279
0.94967067 -0.34920338 2.3636084
1.0507667 -0.34954232 2.3659036
1.1499008 -0.34987497 2.3681543
1.2492248 -0.35020795 2.3704083
1.3335776 -0.35049066 2.3723238
-1.3164008 -0.24994969 2.3121321
-1.2505485 -0.25011134 2.3136265
-1.1495566 -0.25035921 2.3159192
-1.0483661 -0.25060755 2.3182163
-0.94904506 -0.25085109 2.3204699
-0.84953147 -0.25109538 2.3227303
-0.74982285 -0.25133997 2.3249927
-0.64991999 -0.2515853 2.3272612
-0.55012232 -0.25009379 2.3295252
-0.44952846 -0.24997637 2.3318081
-0.34903935 -0.25022075 2.3340905
-0.24794613 -0.24992335 2.3363845
-0.14957333 -0.24859932 2.3386168
-0.050602823 -0.24883825 2.3408642
0.050669093 -0.24908257 2.3431618
0.15002351 -0.24932231 2.345418
0.24957053 -0.24956243 2.3476775
0.34930867 -0.24980322 2.3499417
0.44924036 -0.25004438 2.352211
0.54936379 -0.25028592 2.3544831
0.6496824 -0.25052807 2.3567607
0.75019395 -0.25077051 2.359041
0.84835571 -0.25046945 2.3612709
0.94965416 -0.24912268 2.3635671
1.050747 -0.24936453 2.3658631
1.1498809 -0.24960157 2.3681138
1.2492033 -0.24983916 2.3703687
1.3335549 -0.25004104 2.3722832
-1.3163785 -0.14996731 2.312094
-1.2505274 -0.15006438 2.3135874
-1.1496197 -0.15029301 2.3158777
-1.048438 -0.15027858 2.3181744
-0.94902885 -0.1505082 2.3204317
-0.84951627 -0.15065476 2.3226893
-0.74981004 -0.15080157 2.3249538
-0.6499092 -0.15094869 2.3272216
-0.54981303 -0.15109581 2.3294921
-0.4495216 -0.15124366 2.3317699
-0.34903321 -0.15139163 2.3340514
-0.24874663 -0.15102947 2.3363259
-0.14957087 -0.1495785 2.3385777
-0.050601963 -0.14972223 2.3408239
0.050668206 -0.14986931 2.3431239
0.15002102 -0.15001342 2.3453784
0.24956651 -0.15015799 2.3476379
0.34930268 -0.15030277 2.3499012
0.44923285 -0.15044791 2.3521705
0.54935437 -0.15059331 2.3544436
0.64967084 -0.15073885 2.3567207
0.75018108 -0.15088482 2.3590024
0.8491503 -0.15045576 2.361248
0.94963837 -0.14904533 2.3635294
1.0507303 -0.14918992 2.365824
1.1498619 -0.14933196 2.3680732
1.2491821 -0.14947404 2.3703296
1.3335328 -0.14959468 2.3722432
-1.3163561 -0.049988359 2.3120525
-1.2505059 -0.05002071 2.3135486
-1.1515813 -0.050069194 2.3157935
-1.044986 -0.047085203 2.3227799
-0.94910926 -0.071218699 2.3238485
-0.84952146 -0.071276426 2.3254962
-0.74979174 -0.07133425 2.3271494
-0.6499185 -0.071392305 2.32881
-0.5499016 -0.071450531 2.3304751
-0.44959721 -0.071427472 2.3321521
-0.3490296 -0.071489632 2.3340259
-0.24834526 -0.071559511 2.3363047
-0.14956877 -0.071628183 2.338547
-0.05060133 -0.071696959 2.3407931
0.050667588 -0.071767412 2.3430917
0.15001895 -0.071836486 2.3453472
0.24956313 -0.071905687 2.3476067
0.34929806 -0.071975037 2.3498707
0.4532555 -0.067892581 2.3539677
0.54934514 -0.050904013 2.3544035
0.64966071 -0.050953228 2.3566799
0.75016844 -0.051002555 2.3589621
0.84832627 -0.050512917 2.3611894
0.94962156 -0.048971266 2.3634884
1.0507109 -0.0490188 2.3657823
1.149842 -0.049065426 2.3680334
1.2491606 -0.049112137 2.3702877
1.3335103 -0.049151808 2.3722024
-1.3163334 0.049987242 2.3120131
-1.2504849 0.050019562 2.313508
-1.1515614 0.050068121 2.3157544
-1.0399057 0.050124288 2.3272929
0.49829969 0.04991021 2.3737898
0.54933566 0.050902832 2.3543625
0.6496498 0.050952092 2.3566396
0.75015557 0.051001407 2.3589206
0.84835887 0.050602224 2.3611498
0.94960672 0.048970155 2.3634505
1.0506949 0.049017698 2.3657436
1.149823 0.049064323 2.3679938
1.2491392 0.049111053 2.3702483
1.3334874 0.049150717 2.3721633
-1.3163112 0.14995946 2.3119757
-1.250463 0.15005644 2.3134692
-1.1515421 0.15020207 2.3157148
-1.0399787 0.15030393 2.3273809
0.49817738 0.14966074 2.3734958
0.54932648 0.15058526 2.3543234
0.64963728 0.15073091 2.3566005
0.75014257 0.15087678 2.358881
0.84905946 0.15054227 2.3611259
0.94959044 0.14903736 2.3634088
1.0506772 0.14918195 2.3657036
1.1498034 0.14932378 2.3679545
1.2491188 0.14946611 2.370208
1.3334646 0.14958681 2.3721228
-1.3162891 0.24992825 2.3119361
-1.2504426 0.25008997 2.3134313
-1.1515226 0.25033262 2.3156755
-1.0399976 0.2504248 2.32743
0.49806038 0.25009701 2.3729405
0.54931676 0.25026429 2.3542829
0.64962757 0.25050652 2.3565595
0.75013006 0.25074902 2.3588409
0.84838635 0.25062877 2.3610711
0.94957447 0.24910119 2.3633685
1.050658 0.2493431 2.3656635
1.1497842 0.24958022 2.3679137
1.2490971 0.2498177 2.3701665
1.3334422 0.25001952 2.3720815
-1.3162667 0.34989381 2.3118954
-1.250421 0.35011983 2.3133903
-1.1515031 0.35045972 2.3156366
-1.0399674 0.35061339 2.3274691
0.49794322 0.35048616 2.37238
0.54930764 0.34994024 2.3542428
0.64961594 0.35027888 2.3565192
0.75011706 0.35061768 2.3588009
0.84897518 0.35056791 2.3610454
0.94955772 0.34916183 2.3633289
1.0506417 0.34950054 2.3656223
1.1497641 0.34983298 2.3678734
1.2490752 0.35016623 2.3701277
1.3334193 0.35044888 2.3720417
-1.316244 0.4498558 2.3118575
-1.2503995 0.45014662 2.3133516
-1.1514831 0.45058352 2.3155963
-1.0400373 0.45080951 2.327445
0.4978331 0.45010206 2.3715665
0.54929852 0.44961235 2.3542035
0.64960462 0.45004717 2.3564806
0.75010478 0.45048293 2.3587611
0.84842044 0.45064172 2.3609929
0.94954205 0.44921872 2.3632891
1.0506226 0.44965482 2.3655839
1.1497442 0.45008242 2.3678324
1.2490554 0.45051074 2.3700869
1.3333964 0.45087475 2.3720016
-1.3162221 0.54981405 2.3118193
-1.2503774 0.55016989 2.313313
-1.1514637 0.55070406 2.315557
-1.0400598 0.55094188 2.327605
0.49772367 0.54971272 2.3710456
0.5489853 0.5496617 2.354156
0.64959502 0.54981279 2.3564391
0.75009179 0.550345 2.358721
0.84888226 0.55058008 2.3609624
0.94952554 0.54927224 2.3632474
1.0506061 0.54980534 2.3655431
1.1497254 0.55032849 2.3677933
1.2485149 0.54994351 2.3700345
1.3333738 0.54916066 2.3719616
-1.3161994 0.64976972 2.3117781
-1.2503573 0.65018982 2.313273
-1.1514438 0.65082097 2.3155189
-1.0400769 0.65107924 2.3275723
0.49762684 0.64997429 2.3711579
0.54957545 0.64930463 2.3541305
0.6495828 0.6495747 2.3564003
0.75007892 0.65020329 2.358681
0.84846258 0.65064085 2.3609147
0.94950986 0.64932239 2.3632073
1.0505862 0.64995277 2.3655014
1.1497052 0.65057087 2.3677526
1.2495335 0.65024227 2.3700178
1.3333517 0.64957958 2.3719213
-1.3161768 0.74972159 2.3117397
-1.2503337 0.75020617 2.3132343
-1.1514244 0.75093436 2.3154788
-1.0401847 0.75109255 2.3276582
0.49756083 0.7502498 2.3702669
0.54927021 0.75072831 2.3540826
0.64926451 0.74969733 2.3563535
0.75006682 0.75005829 2.3586404
0.84878129 0.75057811 2.3608813
0.94949317 0.7493698 2.3631692
1.0505699 0.7500959 2.3654635
1.149243 0.75017738 2.3677008
1.2489917 0.74939054 2.3699672
1.333329 0.74999541 2.371881
-1.3161548 0.84966993 2.3116996
-1.2503145 0.85021925 2.3131957
-1.1514052 0.85104424 2.3154392
-1.040352 0.85052019 2.3276768
0.49747106 0.84976065 2.3701255
0.54926127 0.85038877 2.3540421
0.64986062 0.84943187 2.3563268
0.75005358 0.84991032 2.3586016
0.84851164 0.85062665 2.3608358
0.94947749 0.84941262 2.3631268
1.0505512 0.85023695 2.3654215
1.1501172 0.85038078 2.367682
1.2489699 0.84972131 2.3699257
1.3333062 0.85040784 2.37184
-1.3161324 0.949615 2.3116615
-1.2502928 0.95022893 2.3131545
-1.1513852 0.95115101 2.3154008
-1.0435601 0.9469763 2.3242927
-0.94928551 0.96803427 2.3357935
-0.84965116 0.96863246 2.3376455
-0.74976498 0.96926737 2.3388648
-0.6505022 0.96936154 2.3406248
-0.54972255 0.96871483 2.3427656
-0.44957012 0.96943474 2.3441043
-0.34942755 0.97002167 2.345763
-0.24902692 0.97061753 2.3474157
-0.14962356 0.96929896 2.35004
-0.050306786 0.97018528 2.3510585
0.050351866 0.97083902 2.3526263
0.1499306 0.97123116 2.3546746
0.24892212 0.97096378 2.356261
0.34941468 0.97075367 2.3585048
0.45392397 0.96730506 2.3606379
0.54925174 0.95004386 2.3540034
0.64910233 0.95035791 2.3562696
0.75004083 0.94975889 2.3585601
0.84867173 0.95056343 2.3608005
0.94946128 0.9494524 2.3630886
1.0505342 0.95037442 2.36538
1.1493399 0.94952667 2.3676252
1.2489485 0.9500488 2.369885
1.3332834 0.95081609 2.3718002
-1.0295444 1.0003108 2.318146
-0.94884372 1.0011013 2.319978
-0.84935021 1.0020756 2.3222358
-0.74966311 1.0030519 2.3244982
-0.64144915 1.0030634 2.3269546
-0.54970533 1.0029123 2.3290372
-0.44943312 1.0038923 2.3313129
-0.34896478 1.0048742 2.3335931
-0.24731416 1.0057389 2.3358996
-0.14954151 1.004717 2.33812
-0.050592087 1.0056822 2.3403656
0.050658327 1.0066695 2.3426635
0.14999148 1.0076382 2.3449178
0.25260022 1.0071012 2.3472471
0.34923401 1.0074651 2.3494401
0.44914421 1.0084375 2.3517077
0.54924631 1.0094116 2.3539801
0.65201163 1.0096902 2.356312
0.7500332 1.0092415 2.3585372
0.8485741 1.0101982 2.360774
0.94945121 1.0111779 2.3630629
1.0505227 1.0121596 2.3653569
1.1508579 1.0113193 2.3676348
1.2489356 1.0119516 2.3698609
1.3332694 1.0127691 2.3717749
-1.0033228 -0.021907685 2.4318798
0.49664733 -0.022076726 2.4505787
-1.0034217 0.0503943 2.4321196
0.49657559 0.049884502 2.4496448
-1.0035515 0.15046513 2.432121
0.49644735 0.15003558 2.4495945
-1.0036947 0.25019345 2.4327443
0.49634299 0.2501542 2.4484968
-1.0038289 0.34995422 2.4329503
0.49621928 0.34977728 2.4482725
-1.0039668 0.44973922 2.4333241
0.4961035 0.44936454 2.4477072
-1.0041021 0.54992139 2.4335732
0.49599123 0.54932648 2.4469566
-1.0042433 0.65012753 2.434073
0.49587461 0.64971042 2.4463809
-1.0043733 0.74999225 2.434113
0.49575418 0.75002545 2.4459822
-1.0045143 0.8506158 2.4345779
0.49564943 0.85029399 2.4448946
-1.004524 0.92994535 2.4347908
-0.9508028 0.95518595 2.4320333
-0.84866095 0.95531875 2.4362481
-0.75023741 0.95544589 2.4381344
-0.65022677 0.95557451 2.4382539
-0.54988444 0.95570374 2.4388618
-0.44981959 0.95583242 2.4390469
-0.35004678 0.95596045 2.4395878
-0.24866326 0.95609218 2.4436998
-0.15009513 0.95621955 2.4459178
-0.050138593 0.95634753 2.445961
0.050147586 0.95647639 2.4462895
0.15015781 0.9566052 2.4469035
0.25020623 0.95673311 2.4469466
0.3513948 0.95686471 2.4511466
0.45950708 0.9499616 2.4511125
