# .PCD v0.7 - Point Cloud Data file format
VERSION 0.7
FIELDS x y z
SIZE 4 4 4
TYPE F F F
COUNT 1 1 1
WIDTH 463
HEIGHT 1
VIEWPOINT 0 0 0 1 0 0 0
POINTS 463
DATA ascii
-1.3121231 -0.71908498 2.29373
-1.2508851 -0.71952277 2.2951255
-1.1518869 -0.71889925 2.2973821
-1.0688035 -0.71875221 2.2992749
-1.3121132 -0.64882499 2.2937126
-1.2508764 -0.64921939 2.2951086
-1.1507083 -0.64986563 2.2973919
-1.0687958 -0.65039361 2.2992592
-1.3120999 -0.54963583 2.29369
-1.2508646 -0.54997033 2.2950857
-1.1506991 -0.5505172 2.2973678
-1.0687845 -0.55096465 2.2992349
-1.3120868 -0.45044866 2.2936664
-1.2508506 -0.45072302 2.2950618
-1.1506867 -0.45117125 2.2973444
-1.0682379 -0.45096642 2.2992241
-1.312073 -0.35126391 2.2936418
-1.2508363 -0.35147762 2.2950382
-1.150347 -0.35017604 2.2973285
-1.0667123 -0.35004884 2.2992337
-1.3120593 -0.2500146 2.2936184
-1.2508237 -0.25016668 2.2950139
-1.1509943 -0.24879014 2.2972896
-1.0689791 -0.25084925 2.2991586
-1.3120453 -0.14876747 2.2935946
-1.2508118 -0.14885798 2.2949903
-1.1506485 -0.14900605 2.297272
-1.0728402 -0.14912103 2.2990463
-1.3120321 -0.049588703 2.2935708
-1.2507993 -0.049618874 2.2949672
-1.1506394 -0.049668249 2.2972496
-1.0728287 -0.049706567 2.2990215
-1.3120185 0.049588021 2.2935472
-1.2507857 0.049618185 2.2949433
-1.1506263 0.049667593 2.297225
-1.0730617 0.049314059 2.2990007
-1.3120049 0.1487627 2.2935236
-1.2507715 0.1488532 2.294919
-1.1506144 0.14900129 2.2972021
-1.0748562 0.14911327 2.2989273
-1.3119907 0.25000143 2.2934997
-1.2507586 0.25015351 2.2948954
-1.1509792 0.24886513 2.2971687
-1.074845 0.24851958 2.2989039
-1.3119775 0.35123807 2.2934766
-1.2507472 0.35145178 2.2948716
-1.1502168 0.35023478 2.2971623
-1.0748342 0.34999499 2.2988799
-1.3119638 0.45040652 2.2934518
-1.2507341 0.45068058 2.2948465
-1.1505791 0.45112875 2.2971289
-1.0748228 0.45146775 2.298856
-1.3119504 0.54957294 2.2934291
-1.2507206 0.54990757 2.2948246
-1.1505663 0.55045408 2.2971058
-1.0748115 0.55086774 2.2988322
-1.3119371 0.64873731 2.2934039
-1.2507064 0.64913213 2.2947991
-1.1505518 0.64977747 2.2970824
-1.0748005 0.65026587 2.2988098
-1.3119231 0.74996573 2.29338
-1.2512144 0.74936348 2.2947626
-1.1505409 0.74909949 2.2970588
-1.0679011 0.75493389 2.2989402
-1.3119091 0.85119164 2.2933562
-1.2501627 0.85061771 2.2947633
-1.150978 0.84912288 2.2970235
-1.06043 0.84917694 2.299088
-1.3118966 0.94621825 2.293334
-1.2506704 0.94679409 2.2947292
-1.1500397 0.9463402 2.2970219
-1.0604193 0.94651139 2.2990646
-1.0175394 -0.71911722 2.3004434
-0.94978112 -0.71959984 2.3019879
-0.8510707 -0.72030288 2.3042378
-0.75048387 -0.71779329 2.3065295
-0.64893675 -0.717583 2.3088434
-0.54963756 -0.71828651 2.3111072
-0.45014283 -0.7189917 2.3133745
-0.35169616 -0.71826309 2.3156183
-0.25056747 -0.71831721 2.3179221
-0.14954551 -0.7173363 2.320225
-0.050205622 -0.71763927 2.3224888
0.049018778 -0.71690667 2.3247497
0.1509472 -0.71695995 2.3270729
0.24971734 -0.71765321 2.3293235
0.34868035 -0.71834803 2.3315787
0.44977143 -0.71626133 2.3338828
0.54929537 -0.71554714 2.3361509
0.64883941 -0.71624213 2.3384187
0.75070065 -0.71695334 2.3407402
0.84901732 -0.71651614 2.3429816
0.95076543 -0.71623695 2.3452997
1.0527207 -0.71577275 2.3476236
1.1494695 -0.71550322 2.3498275
1.2485341 -0.71537489 2.3520861
1.3296003 -0.71463233 2.3539333
-1.0175321 -0.65072411 2.300427
-0.94977444 -0.65116084 2.3019726
-0.85061479 -0.65108931 2.3042312
-0.7503857 -0.64863437 2.306515
-0.64893192 -0.64894032 2.3088269
-0.54963338 -0.64957625 2.3110905
-0.45014021 -0.65021366 2.3133574
-0.35045063 -0.65085232 2.3156307
-0.25056568 -0.65149212 2.3179057
-0.15039518 -0.64986509 2.3201892
-0.050205234 -0.64859092 2.3224726
0.050271243 -0.64923048 2.3247614
0.1509461 -0.64987117 2.3270559
0.24971567 -0.65050006 2.3293076
0.34867737 -0.65112966 2.331562
0.44949329 -0.65030068 2.3338602
0.54953039 -0.65001851 2.3361397
0.64883387 -0.64882648 2.338403
0.75069511 -0.64947104 2.3407247
0.85062927 -0.65010273 2.3430021
0.9507587 -0.65073597 2.3452837
1.0505625 -0.6502859 2.3475571
1.1494617 -0.64987552 2.3498139
1.2501748 -0.65051037 2.3521075
1.3297433 -0.6492058 2.3539209
-1.0175219 -0.55124474 2.3004043
-0.94968271 -0.55152529 2.3019502
-0.85150099 -0.54940164 2.3041863
-0.75009048 -0.54854947 2.3064971
-0.64892524 -0.54909772 2.308804
-0.54962754 -0.54963571 2.3110659
-0.45013517 -0.55017507 2.3133342
-0.35044691 -0.55071557 2.3156059
-0.25056326 -0.5512569 2.3178809
-0.15091911 -0.55120552 2.3201537
-0.049687527 -0.54901105 2.3224602
0.050270773 -0.54869896 2.3247371
0.15094431 -0.54924011 2.3270321
0.24971296 -0.54977149 2.3292837
0.34867433 -0.55030394 2.3315384
0.44993776 -0.55084854 2.3338466
0.54905468 -0.5511173 2.3361051
0.64882863 -0.54981178 2.3383789
0.75068736 -0.5503577 2.3406997
0.85062033 -0.54878223 2.3429773
0.95074886 -0.54931688 2.3452592
1.0510719 -0.54985243 2.3475456
1.1494495 -0.55037773 2.3497875
1.2501621 -0.55091524 2.352083
1.3294208 -0.54955596 2.3538899
-1.0169115 -0.4523367 2.3003945
-0.94983351 -0.4499132 2.3019214
-0.85104573 -0.44836065 2.3041735
-0.75008255 -0.44880834 2.3064735
-0.64891881 -0.4492569 2.308779
-0.54962194 -0.44969743 2.3110418
-0.45012987 -0.45013878 2.3133104
-0.35044342 -0.45058087 2.3155806
-0.25056043 -0.45102379 2.3178592
-0.1504809 -0.45146757 2.3201389
-0.050725076 -0.45071083 2.322412
0.050805166 -0.44919616 2.3247261
0.15094286 -0.44861147 2.327008
0.24971025 -0.44904545 2.3292589
0.34867084 -0.44948027 2.3315141
0.44993374 -0.44992515 2.3338225
0.54928058 -0.45036173 2.3360865
0.64882308 -0.45079905 2.3383551
0.75067979 -0.45124659 2.3406758
0.85061127 -0.44957483 2.3429532
0.95073932 -0.45001253 2.3452351
1.0510613 -0.4504514 2.3475213
1.1498775 -0.44939178 2.3497727
1.2501494 -0.44920295 2.3520594
1.3295636 -0.44954872 2.3538682
-1.0155735 -0.34972391 2.3003991
-0.94974422 -0.34838089 2.3018985
-0.85103828 -0.34872156 2.3041494
-0.75007558 -0.34906986 2.3064494
-0.64891189 -0.34941864 2.3087549
-0.5496164 -0.3497608 2.3110189
-0.45012596 -0.35010412 2.3132865
-0.35043979 -0.35044822 2.3155577
-0.2505579 -0.35079247 2.3178341
-0.15047926 -0.35113767 2.3201151
-0.050203677 -0.35148352 2.3223999
0.049734727 -0.35080317 2.3246787
0.15094145 -0.35008091 2.3269839
0.25013992 -0.34894177 2.3292444
0.3486667 -0.34865853 2.3314898
0.44992843 -0.3490037 2.3337977
0.5492748 -0.34934253 2.3360612
0.64881474 -0.34968159 2.33833
0.7506724 -0.35002863 2.3406515
0.85060292 -0.35036924 2.3429291
0.95072913 -0.35071078 2.345211
1.0510492 -0.3510524 2.3474979
1.1489786 -0.34993255 2.3497295
1.2501354 -0.34961173 2.3520336
1.32955 -0.3498809 2.3538442
-1.0283905 -0.24575113 2.325913
-0.94977105 -0.26416609 2.3084006
-0.8509236 -0.26429704 2.310106
-0.75010729 -0.26468793 2.3115449
-0.64914602 -0.26469851 2.3134673
-0.54962194 -0.26482564 2.3152349
-0.45007738 -0.26516181 2.316736
-0.35051236 -0.26528904 2.3184063
-0.25056791 -0.26542118 2.320224
-0.15041395 -0.26410663 2.3261707
-0.050210271 -0.26424092 2.3279305
0.050259206 -0.26444167 2.3296225
0.15076029 -0.26471332 2.3312898
0.24905165 -0.2632038 2.3334036
0.34880066 -0.26295528 2.334831
0.45375594 -0.25437397 2.336534
0.54943621 -0.25023964 2.3360417
0.64880723 -0.24856625 2.3383055
0.75066429 -0.24881302 2.3406272
0.85059398 -0.24905498 2.3429046
0.95071959 -0.24929768 2.3451858
1.0510366 -0.24954066 2.3474722
1.1494147 -0.249779 2.3497148
1.2501228 -0.25002307 2.35201
1.3295362 -0.25021532 2.3538196
-1.0467956 -0.15002447 2.3522224
0.47228229 -0.15105103 2.3404622
0.54910141 -0.15134253 2.3360109
0.64880151 -0.14955956 2.3382826
0.75065637 -0.14970788 2.3406036
0.85058534 -0.14985369 2.3428814
0.95070958 -0.1499996 2.3451622
1.0510284 -0.15014586 2.3474486
1.1494023 -0.15028922 2.3496916
1.2501106 -0.15043598 2.351985
1.3295228 -0.15055174 2.3537951
-1.0471245 -0.050029457 2.3527992
0.47227797 -0.050298307 2.3399494
0.54925781 -0.050505809 2.33599
0.64879572 -0.050554857 2.3382573
0.75064874 -0.050605066 2.340579
0.85057622 -0.050654314 2.3428559
0.95070022 -0.0507036 2.3451376
1.0510192 -0.050753076 2.3474238
1.14939 -0.050801512 2.3496654
1.2500973 -0.050851159 2.3519614
1.3295087 -0.050890289 2.3537712
-1.0474179 0.04977968 2.3518665
0.47150999 0.051239148 2.341589
0.54925185 0.050505135 2.3359644
0.64878803 0.050554194 2.338233
0.75064111 0.050604343 2.3405545
0.85056746 0.050653573 2.3428321
0.95068955 0.050702929 2.345113
1.0510072 0.05075236 2.3474004
1.1493779 0.050800819 2.3496411
1.2500844 0.050850458 2.3519368
1.3294947 0.050889563 2.3537462
-1.0475668 0.14995624 2.3445458
0.470826 0.15100685 2.3432255
0.54916143 0.15142594 2.3359387
0.64878047 0.14955464 2.3382094
0.75063324 0.14970316 2.3405309
0.85055834 0.14984885 2.3428071
0.95067972 0.14999472 2.3450894
1.0509949 0.15014097 2.3473761
1.1493665 0.15028435 2.349618
1.2500715 0.15043116 2.351912
1.3294809 0.150547 2.3537221
-1.0479006 0.24993499 2.3453534
0.47048923 0.25002792 2.3430233
0.54932857 0.25032118 2.3359187
0.64877409 0.24855322 2.3381848
0.75062513 0.24880001 2.3405066
0.85055006 0.24904206 2.3427839
0.95067012 0.24928464 2.3450658
1.0509826 0.24952765 2.3473511
1.1493549 0.24976584 2.3495941
1.2500577 0.25000989 2.3518865
1.3294675 0.25020227 2.3536975
-1.0482281 0.34997585 2.3458629
0.47061953 0.34917018 2.3424602
0.54923463 0.34931698 2.3358929
0.64876848 0.34965611 2.338161
0.75061738 0.35000327 2.3404813
0.8505407 0.35034385 2.3427596
0.95066005 0.35068482 2.3450403
1.0509713 0.35102651 2.3473268
1.1488417 0.35009313 2.3495581
1.2500453 0.34958661 2.3518636
1.3294538 0.34985575 2.353673
-1.0485603 0.44944444 2.3466439
0.47049081 0.44995973 2.3420308
0.54922903 0.45031944 2.3358681
0.64876169 0.45075655 2.3381357
0.75061011 0.45120409 2.340457
0.85029238 0.44981724 2.3427296
0.95065063 0.44997039 2.3450165
1.0509638 0.45040929 2.3473024
1.1498271 0.44953164 2.3495557
1.2500324 0.44916117 2.35184
1.3294401 0.44950661 2.3536496
-1.0488904 0.54961616 2.3472936
0.47047654 0.55073476 2.3415868
0.54922324 0.55131978 2.3358433
0.6487537 0.5497492 2.3381128
0.75060236 0.55029482 2.3404331
0.85075575 0.54898602 2.3427157
0.9506408 0.54925424 2.3449929
1.0509531 0.54978961 2.3472793
1.1493187 0.55031472 2.3495188
1.2500191 0.55085206 2.3518133
1.3291432 0.54999101 2.3536181
-1.0492275 0.65005881 2.3481586
0.47019175 0.64979511 2.3417268
0.54921758 0.6502142 2.3358197
0.64874673 0.64873916 2.338088
0.75059432 0.64938301 2.340409
0.85051417 0.65001518 2.3426852
0.9506309 0.65064818 2.3449678
1.0504458 0.65047282 2.3472426
1.1493071 0.64978778 2.3494959
1.2500062 0.65042233 2.3517909
1.3296918 0.64959872 2.3536065
-1.035054 0.74893922 2.3412793
-0.94995773 0.77245802 2.3240709
-0.85031855 0.77296019 2.3257842
-0.75050914 0.77334756 2.326982
-0.64959013 0.77251887 2.3303952
-0.55073088 0.77343404 2.329623
-0.45017883 0.7743088 2.3294165
-0.350279 0.77489722 2.3310997
-0.2503593 0.77541822 2.3329744
-0.15014236 0.77435726 2.3357565
-0.050084565 0.77493423 2.3373282
0.050134208 0.7755124 2.3390586
0.15048997 0.77609134 2.34095
0.24979226 0.77647108 2.343056
0.34842423 0.77610856 2.345006
0.45695245 0.75575989 2.341418
0.54921198 0.74910545 2.3357959
0.6487413 0.74983364 2.3380642
0.75058585 0.75057739 2.3403845
0.85006851 0.75068134 2.3426511
0.95062089 0.74992806 2.344943
1.0514311 0.74981374 2.3472412
1.1492954 0.74925989 2.349472
1.2499933 0.74999118 2.3517656
1.3293982 0.75056809 2.3535755
-1.0091683 0.84960812 2.3002555
-0.94962651 0.85010934 2.3016136
-0.8509323 0.85093963 2.3038604
-0.74960113 0.85102916 2.3061714
-0.64883143 0.84848219 2.3084679
-0.54954773 0.84931344 2.3107307
-0.45006928 0.85014707 2.3129973
-0.35039604 0.85098147 2.3152697
-0.2508775 0.85113364 2.3175359
-0.15046071 0.84847683 2.3198264
-0.050197467 0.84931266 2.3221111
0.050263431 0.85014987 2.3243997
0.1509226 0.85098904 2.326694
0.24916938 0.85064375 2.328933
0.34909829 0.84912068 2.3312104
0.44987285 0.84927642 2.3335078
0.55132258 0.8501181 2.3358188
0.65085369 0.85094327 2.3380876
0.75021666 0.85011357 2.3403523
0.8509416 0.8498311 2.3426483
0.95061058 0.84920502 2.3449194
1.0509167 0.85003251 2.347204
1.1492832 0.85084444 2.3494463
1.2498913 0.84964812 2.3517399
1.3293844 0.85021091 2.3535511
-1.009158 0.9469927 2.3002329
-0.94961667 0.94755137 2.3015902
-0.85092252 0.94847739 2.3038383
-0.74988759 0.94933838 2.3061399
-0.64882439 0.94829381 2.3084447
-0.54954201 0.94922328 2.3107061
-0.45006499 0.9501543 2.3129737
-0.35039237 0.9510873 2.3152456
-0.25061148 0.9502846 2.3175178
-0.15045901 0.94877952 2.3198023
-0.050196886 0.949714 2.3220863
0.050262854 0.95064998 2.3243752
0.15048203 0.95099115 2.3266602
0.25017837 0.94920772 2.3289323
0.34862006 0.94923085 2.3311756
0.44986761 0.95017052 2.3334827
0.55131656 0.95111245 2.3357947
0.65084618 0.94992959 2.3380635
0.75092471 0.94917268 2.3403442
0.85048819 0.94966799 2.3426135
0.95060158 0.95059288 2.3448949
1.0504298 0.95015615 2.3471687
1.1492714 0.95031148 2.3494222
1.2500541 0.94920689 2.3517199
1.3293707 0.94985199 2.3535271
-0.22761443 1.0002613 2.3180311
-0.15045823 1.0010198 2.3197892
-0.050196659 1.0020057 2.3220737
0.050262615 1.0029935 2.3243628
0.1589791 1.0031158 2.3268409
0.24967273 1.0028565 2.3289075
0.34861779 1.0038275 2.3311622
0.44986546 1.0048209 2.3334696
0.55131358 1.0058165 2.3357813
0.65084267 1.0046871 2.3380497
0.7505666 1.0056634 2.3403225
0.85048294 1.006642 2.3425994
0.95059532 1.0076222 2.3448808
1.0539535 1.0071241 2.3472362
1.1492641 1.0074511 2.3494081
1.2499597 1.0084356 2.3517029
1.3293628 1.0092113 2.3535125
-1.0426966 -0.22354476 2.4245665
-0.94989347 -0.2380165 2.4239402
-0.85051733 -0.23770584 2.4207766
-0.75140226 -0.23739602 2.4176219
-0.64121699 -0.23704712 2.4267542
-0.54915839 -0.23675607 2.4331365
-0.4499031 -0.23644583 2.4299479
-0.34984738 -0.23613283 2.4272313
-0.24893066 -0.23581743 2.4239883
-0.14967346 -0.23549928 2.4431331
-0.050566066 -0.23518948 2.4399192
0.050475534 -0.2348735 2.4366415
0.15322131 -0.23455012 2.4352162
0.25081205 -0.23423752 2.452672
0.35086349 -0.23392355 2.449898
0.44114399 -0.22390841 2.440311
-1.048443 -0.15017255 2.4245152
0.4517411 -0.15021817 2.4339726
-1.0487802 -0.050252531 2.4254627
0.45144996 -0.050415173 2.4329281
-1.0490913 0.052252002 2.4248903
0.45107934 0.046938848 2.4357107
-1.0493239 0.15009905 2.4215302
0.45044824 0.15341684 2.4486349
-1.0496579 0.24964903 2.4223907
0.45012626 0.2504327 2.4493153
-1.0499938 0.34971082 2.4232538
0.44984382 0.35006261 2.4479146
-1.0503221 0.44939083 2.4238327
0.44956833 0.45010301 2.4461482
-1.0506561 0.54957926 2.4246089
0.44928771 0.55004734 2.4446208
-1.050994 0.65026569 2.425473
0.44900212 0.6498372 2.4433348
-1.0426322 0.74134547 2.4250665
-0.94640505 0.76199436 2.4272416
-0.84992027 0.76229942 2.4316754
-0.74946338 0.76261604 2.4326856
-0.64946711 0.76293105 2.433459
-0.54742944 0.7632516 2.4303229
-0.44981793 0.76355827 2.4285333
-0.34975746 0.76387393 2.4295287
-0.25005603 0.76418817 2.4307752
-0.15027125 0.76450258 2.4314048
-0.050403275 0.7648176 2.4327784
0.050431211 0.76513565 2.4337885
0.1512637 0.76545376 2.4351737
0.25012603 0.76576722 2.4426656
0.35039121 0.76608342 2.4437273
0.43632346 0.75024033 2.4429088
