# .PCD v0.7 - Point Cloud Data file format
VERSION 0.7
FIELDS x y z
SIZE 4 4 4
TYPE F F F
COUNT 1 1 1
WIDTH 464
HEIGHT 1
VIEWPOINT 0 0 0 1 0 0 0
POINTS 464
DATA ascii
-1.3112186 -0.73349226 2.292321
-1.2501148 -0.7335434 2.2937129
-1.1500076 -0.73427248 2.2959914
-1.0496998 -0.73500264 2.2982752
-0.98624653 -0.73513687 2.2997203
-1.3113378 -0.64883453 2.2922382
-1.2500713 -0.6488021 2.293633
-1.149969 -0.64944667 2.2959118
-1.0496632 -0.65009308 2.2981956
-0.98435891 -0.64950252 2.2996817
-1.3112168 -0.5492661 2.2921457
-1.250021 -0.54960012 2.2935388
-1.1499223 -0.5501461 2.2958181
-1.04962 -0.55069333 2.2981026
-0.98227239 -0.55017895 2.2996352
-1.311164 -0.45013219 2.2920532
-1.2499702 -0.45040584 2.2934461
-1.1498709 -0.45085341 2.2957251
-1.0495778 -0.45130199 2.2980092
-0.98018467 -0.45083007 2.2995877
-1.3111107 -0.35100645 2.2919593
-1.2499195 -0.35121971 2.2933543
-1.1497457 -0.35147944 2.2956345
-1.0495343 -0.34984821 2.2979138
-0.97808254 -0.349388 2.2995396
-1.3110567 -0.24982375 2.2918661
-1.2498678 -0.24997559 2.2932577
-1.149858 -0.25014082 2.2955351
-1.0637251 -0.25686926 2.2975194
-0.97653592 -0.28346568 2.2995121
-1.3110021 -0.14864939 2.2917702
-1.2498156 -0.14873977 2.2931635
-1.1497329 -0.14888749 2.2954416
-1.0760798 -0.14899626 2.2971177
-1.3109491 -0.049548011 2.2916777
-1.2497653 -0.049578156 2.2930698
-1.1496863 -0.049627386 2.2953482
-1.076036 -0.049663648 2.2970247
-1.3108958 0.049545337 2.2915847
-1.2497143 0.049575444 2.2929776
-1.149636 0.049624726 2.2952547
-1.0759926 0.049660936 2.296931
-1.3108429 0.14863068 2.2914913
-1.2496635 0.14872105 2.2928836
-1.1495908 0.14886883 2.2951617
-1.0759487 0.14897749 2.2968385
-1.3107888 0.24977194 2.2913964
-1.2496121 0.24992378 2.2927892
-1.1495434 0.25017208 2.2950671
-1.0761491 0.2491678 2.2967377
-1.3107342 0.35090491 2.2913029
-1.2495601 0.35111785 2.2926946
-1.1494985 0.3514663 2.2949715
-1.0756172 0.35049707 2.2966547
-1.3106804 0.44996586 2.291209
-1.2495091 0.45023909 2.2926018
-1.1494505 0.4506864 2.2948785
-1.0758216 0.45101818 2.2965667
-1.3106273 0.54901856 2.291116
-1.2494584 0.54935211 2.2925076
-1.1494014 0.54989791 2.2947855
-1.0758132 0.55032128 2.2965505
-1.3105736 0.65012693 2.2910216
-1.2499098 0.64929992 2.2924032
-1.1493573 0.64910132 2.2946928
-1.075809 0.64962506 2.2965436
-1.3105187 0.75122648 2.2909262
-1.2488581 0.75042754 2.2923307
-1.1498069 0.7494328 2.2945857
-1.0552315 0.75497812 2.2968242
-0.95739526 0.76541787 2.2989829
-1.3104655 0.85025525 2.290834
-1.2493043 0.85077155 2.2922254
-1.1487645 0.85065234 2.2945135
-1.0515695 0.84936005 2.2967288
-0.95489812 0.84928328 2.2989275
-1.3104155 0.94514984 2.2907445
-1.2492555 0.94572401 2.2921371
-1.149217 0.94666326 2.2944136
-1.0504797 0.94653273 2.2966592
-0.95281518 0.94659501 2.2988834
-0.93687522 -0.73375118 2.300843
-0.85054296 -0.73437744 2.3028088
-0.74912894 -0.73467922 2.3051169
-0.64908743 -0.73326498 2.3073931
-0.54929417 -0.73240274 2.3096631
-0.44986165 -0.73312193 2.3119276
-0.3502337 -0.73383975 2.3141954
-0.25117174 -0.73328239 2.3164504
-0.149932 -0.73282969 2.3187547
-0.050173987 -0.73182368 2.3210247
0.050114103 -0.73246109 2.323308
0.15085156 -0.73117107 2.3255994
0.24955904 -0.73187721 2.327847
0.34845874 -0.73258525 2.3300989
0.44895619 -0.73237067 2.3323863
0.55106044 -0.72982872 2.3347077
0.6505428 -0.73053586 2.3369732
0.75022042 -0.7312457 2.3392422
0.84942788 -0.7304213 2.3414996
0.95015454 -0.73055685 2.3437929
1.0504135 -0.73126841 2.3460755
1.149068 -0.73011398 2.34832
1.2493744 -0.72844398 2.350601
1.3287398 -0.72900426 2.3524089
-0.93514985 -0.65123296 2.3008034
-0.85051376 -0.65137565 2.3027303
-0.74949116 -0.65019321 2.3050284
-0.64850992 -0.64851838 2.3073249
-0.54927558 -0.64915365 2.3095849
-0.44984627 -0.64978987 2.3118486
-0.35022172 -0.65042758 2.3141165
-0.25040185 -0.65106612 2.3163903
-0.15067723 -0.65136838 2.3186595
-0.04967472 -0.64893115 2.3209572
0.050238118 -0.64880335 2.3232307
0.15084654 -0.64944285 2.3255222
0.24955061 -0.65007067 2.327769
0.34844688 -0.65069944 2.3300207
0.44956017 -0.65125823 2.3323228
0.55104232 -0.64988381 2.3346317
0.65103906 -0.64948767 2.3369069
0.75019485 -0.64903808 2.3391638
0.85006142 -0.64966935 2.3414376
0.95012355 -0.6503014 2.3437159
1.0503787 -0.65093476 2.345998
1.1483848 -0.6498186 2.3482287
1.2493345 -0.65007341 2.3505268
1.3286967 -0.65057296 2.3523338
-0.93305951 -0.5517568 2.3007555
-0.8500281 -0.55107147 2.3026454
-0.75004131 -0.54885709 2.304919
-0.64848346 -0.54872411 2.3072317
-0.54925317 -0.54926133 2.3094904
-0.44982761 -0.54979974 2.3117537
-0.35020742 -0.55033916 2.3140225
-0.25039127 -0.55087972 2.3162949
-0.15037937 -0.55142111 2.318572
-0.050673116 -0.55067456 2.3208406
0.05046621 -0.54857373 2.3231411
0.15084031 -0.54886138 2.3254263
0.24954039 -0.54939181 2.3276727
0.34843269 -0.54992354 2.3299255
0.44962624 -0.55046725 2.3322291
0.55101985 -0.5510118 2.334537
0.64997804 -0.55055887 2.3367894
0.75016439 -0.54997426 2.3390684
0.85043228 -0.54994327 2.341351
0.95008397 -0.54893291 2.3436191
1.050334 -0.54946733 2.345901
1.149647 -0.54945952 2.3481615
1.2502435 -0.5510692 2.3504539
1.3286424 -0.55095148 2.3522377
-0.93065178 -0.45116454 2.3007152
-0.85088861 -0.44944242 2.3025303
-0.74954951 -0.44848984 2.3048356
-0.64845693 -0.44893774 2.3071368
-0.54923069 -0.44937739 2.3093958
-0.44980919 -0.44981778 2.3116601
-0.35019302 -0.45025909 2.3139277
-0.25038114 -0.4507013 2.3161993
-0.15037313 -0.45114422 2.3184767
-0.050168268 -0.45158809 2.3207586
0.04999648 -0.45021012 2.3230371
0.1512316 -0.44879708 2.3253398
0.25154859 -0.44864634 2.3276231
0.35043234 -0.44925168 2.3298748
0.44960773 -0.44959968 2.3321328
0.5509969 -0.45004469 2.3344409
0.65046829 -0.45048115 2.3367054
0.75013357 -0.45091861 2.3389735
0.84959483 -0.45082197 2.3412383
0.95004517 -0.44968453 2.3435233
1.0502932 -0.45012242 2.3458056
1.1507369 -0.45056114 2.3480928
1.25146 -0.44897172 2.3503833
1.3285871 -0.4492189 2.3521388
-0.9291569 -0.3496179 2.3006532
-0.85040832 -0.34846386 2.3024445
-0.74951977 -0.34881109 2.3047409
-0.64843059 -0.34915957 2.3070428
-0.54920799 -0.34950143 2.3093021
-0.44979084 -0.34984389 2.3115644
-0.35017887 -0.35018727 2.3138325
-0.25037095 -0.35053107 2.3161056
-0.15036692 -0.35087579 2.3183813
-0.050166156 -0.35122049 2.320663
0.050232038 -0.35156703 2.3229487
0.15042204 -0.35035765 2.3252273
0.25162259 -0.35016343 2.3275313
0.35059339 -0.34849125 2.3297827
0.44958904 -0.3487407 2.3320358
0.55097461 -0.3490856 2.3343439
0.65044159 -0.34942448 2.3366094
0.75010294 -0.34976396 2.3388774
0.84995705 -0.35010371 2.3411505
0.9500069 -0.35044405 2.3434286
1.0502506 -0.3507854 2.3457103
1.1506896 -0.35112751 2.3479965
1.2512343 -0.34944773 2.3502834
1.3285332 -0.34961358 2.3520436
-1.0472239 -0.2404578 2.34852
-0.93702984 -0.2775062 2.3203344
-0.8505078 -0.27948543 2.3144517
-0.74980634 -0.27957684 2.314889
-0.64876407 -0.2796253 2.3164883
-0.54928952 -0.2797685 2.31745
-0.44971108 -0.27991208 2.3185706
-0.34919602 -0.2797091 2.3219593
-0.25029302 -0.2788713 2.3276546
-0.15026037 -0.27902365 2.3282926
-0.050173424 -0.2791166 2.3295336
0.050209299 -0.27927303 2.3307676
0.15069611 -0.27942976 2.3321488
0.25128976 -0.2795876 2.3332491
0.350252 -0.27760547 2.3352525
0.45833892 -0.25492522 2.3372703
0.55095214 -0.25023818 2.3342497
0.65085751 -0.24982196 2.3365238
0.75007147 -0.24861687 2.3387809
0.84992182 -0.24885863 2.3410535
0.94996727 -0.24910069 2.3433313
1.0502055 -0.2493432 2.345613
1.1506418 -0.24958634 2.3478994
1.2512723 -0.24982986 2.3501906
1.3284793 -0.25001678 2.3519471
-1.0519594 -0.14997427 2.3449192
0.46829164 -0.15093473 2.3411088
0.55092984 -0.15139864 2.3341553
0.64995313 -0.15092281 2.3364096
0.7500416 -0.14958555 2.3386855
0.84988725 -0.149731 2.3409586
0.94992864 -0.14987664 2.3432367
1.0501647 -0.1500226 2.3455179
1.1505957 -0.15016885 2.3478045
1.2512207 -0.15031528 2.3500953
1.3284248 -0.15042777 2.3518519
-1.0523839 -0.050087411 2.3456833
0.4681372 -0.05034643 2.3405039
0.5509069 -0.050464366 2.3340592
0.65036207 -0.050513275 2.3363221
0.7500118 -0.05056233 2.3385913
0.84985316 -0.050611481 2.3408637
0.94989014 -0.050660711 2.3431399
1.0501207 -0.050710052 2.3454235
1.1505486 -0.050759453 2.3477094
1.2511711 -0.050809011 2.3499968
1.3283708 -0.05084699 2.3517559
-1.0528115 0.049903248 2.346575
0.46803272 0.050330952 2.3399565
0.55088413 0.050461568 2.3339624
0.65033537 0.050510518 2.3362262
0.74998027 0.050559547 2.3384943
0.84981793 0.05060868 2.3407671
0.94985133 0.050657913 2.3430429
1.0500771 0.050707236 2.3453252
1.1505005 0.050756693 2.3476114
1.2511185 0.050806168 2.349901
1.3283156 0.050844159 2.3516579
-1.0532484 0.14995311 2.3478515
0.46792731 0.15095532 2.3394647
0.55086166 0.15137918 2.3338668
0.65007681 0.15126109 2.3361247
0.74994993 0.14956656 2.3383992
0.84978336 0.14971197 2.3406713
0.94981188 0.14985771 2.3429489
1.0500345 0.15000342 2.3452299
1.1504538 0.15014981 2.3475158
1.2510673 0.15029615 2.3498061
1.3282616 0.1504086 2.3515623
-1.0536764 0.25009263 2.3487475
0.46760818 0.24995816 2.3393221
0.55083942 0.25018615 2.3337719
0.6505208 0.25014451 2.3360417
0.74991947 0.24856564 2.3383045
0.84974885 0.24880722 2.3405769
0.94977379 0.24904929 2.3428533
1.0499928 0.24929179 2.3451355
1.1504073 0.24953464 2.3474188
1.2510164 0.249778 2.3497109
1.3282074 0.24996483 2.3514669
-1.0541025 0.34988913 2.3495924
0.46769822 0.3490625 2.3385825
0.55081683 0.34898517 2.3336775
0.65025556 0.3493236 2.3359401
0.74988836 0.34966236 2.3382084
0.84971362 0.35000247 2.3404799
0.94973415 0.35034293 2.3427572
1.0499483 0.35068396 2.3450377
1.1503593 0.35102567 2.3473217
1.2504636 0.35009974 2.3496025
1.3281531 0.34951288 2.3513715
-1.0545309 0.44976583 2.350529
0.46773043 0.44957691 2.3380537
0.55079436 0.44987828 2.333581
0.6502285 0.45031449 2.3358438
0.74985754 0.45075166 2.3381114
0.84967858 0.45118976 2.3403831
0.94938922 0.44988123 2.342654
1.0499059 0.44995609 2.3449419
1.1503121 0.45039436 2.3472269
1.2514114 0.44952616 2.3495305
1.3280989 0.44905302 2.3512759
-1.0549593 0.54972845 2.3514626
0.46747282 0.55018622 2.3378351
0.55077147 0.55076283 2.3334849
0.65020156 0.55129677 2.3357475
0.74973923 0.54981732 2.3380151
0.84964377 0.55026031 2.3402884
0.94995493 0.54902673 2.3425729
1.0498637 0.54921979 2.3448465
1.1502665 0.54975504 2.3471303
1.2508628 0.55029124 2.3494215
1.3280436 0.55070263 2.3511772
-1.05539 0.64976758 2.3524854
0.46744859 0.65102267 2.3372726
0.55021411 0.65069449 2.3333771
0.65017545 0.65016747 2.3356528
0.74988097 0.64877778 2.3379242
0.84960973 0.64932323 2.3401933
0.9496181 0.64995492 2.3424685
1.0498192 0.65058732 2.3447495
1.1498139 0.65070665 2.3470254
1.2508121 0.64974076 2.3493254
1.3279897 0.65022618 2.3510816
-1.0403589 0.72422057 2.3529298
-0.93958235 0.73884839 2.3391135
-0.84995967 0.75545144 2.3169336
-0.75094569 0.75618172 2.3186767
-0.65078831 0.75675368 2.3202577
-0.54929137 0.75655979 2.3200798
-0.44973725 0.75721693 2.3220825
-0.3500126 0.75787491 2.3240366
-0.25020966 0.75857937 2.3260803
-0.15023388 0.75919354 2.3281109
-0.050267685 0.7581324 2.3304598
0.050142452 0.75862306 2.3325152
0.15053526 0.75928092 2.334636
0.25100684 0.75998688 2.3365548
0.35023004 0.76025152 2.3389776
0.45050892 0.75310695 2.3362412
0.55126357 0.7494244 2.3333075
0.65014911 0.74903017 2.3355591
0.74976569 0.74975801 2.3378255
0.84957439 0.750485 2.3400965
0.9492802 0.75087291 2.3423655
1.0497772 0.74983513 2.3446534
1.1505855 0.75002241 2.3469489
1.2507612 0.74918246 2.3492293
1.3279357 0.74974155 2.3509862
-0.90367132 0.84772521 2.3000956
-0.84999162 0.84999913 2.3013155
-0.751212 0.85082948 2.3035631
-0.64983416 0.85125196 2.3058696
-0.5491637 0.84863925 2.3081644
-0.44957012 0.84920317 2.3104308
-0.35000661 0.85003597 2.3126965
-0.25024784 0.85087001 2.3149672
-0.15058458 0.85136789 2.317234
-0.049981434 0.84853482 2.3195267
0.050207328 0.84920132 2.3218064
0.15075397 0.85003799 2.3240952
0.25149897 0.85087651 2.3263872
0.34983218 0.85080469 2.3286259
0.44990239 0.84926969 2.3309054
0.55070424 0.84916437 2.3332
0.65012228 0.84998775 2.3354619
0.74973428 0.85081279 2.3377285
0.84904188 0.85037357 2.3399904
0.94984645 0.84999639 2.3422842
1.0497341 0.84907407 2.3445585
1.1501241 0.84990156 2.3468437
1.2507092 0.85073066 2.3491311
1.3275987 0.85008258 2.3508835
-0.90166456 0.94343656 2.3000507
-0.84995747 0.94740039 2.3012242
-0.75118214 0.94832569 2.3034716
-0.65014958 0.94927204 2.3057697
-0.54868889 0.94839406 2.3080804
-0.44955194 0.94907051 2.3103361
-0.34999236 0.9500013 2.3126016
-0.25023761 0.95093358 2.3148718
-0.15048753 0.95074433 2.3171425
-0.050139498 0.94862652 2.3194287
0.050205246 0.94956082 2.3217118
0.15074776 0.95049596 2.3239989
0.2512576 0.95117903 2.3262868
0.35083106 0.94932717 2.3285542
0.44935003 0.94907689 2.3307974
0.55068165 0.95001602 2.3331039
0.65009522 0.95093691 2.3353653
0.74934292 0.95020485 2.3376255
0.84999859 0.94937789 2.3399172
0.94950169 0.94949269 2.3421829
1.0496911 0.95041734 2.3444626
1.1495367 0.95039147 2.3467343
1.2506582 0.9501552 2.3490362
1.3281065 0.94954401 2.3508008
-0.11901658 1.0001664 2.3178117
-0.050138403 1.0008427 2.3193791
0.050204191 1.0018278 2.3216622
0.15074451 1.0028151 2.3239496
0.25638631 1.0033866 2.3263538
0.35031548 1.0026777 2.3284924
0.44934019 1.003648 2.3307457
0.55066919 1.0046408 2.333051
0.6500808 1.0056149 2.3353133
0.75269467 1.0048293 2.3376496
0.84948581 1.0054615 2.3398523
0.94947934 1.0064392 2.3421271
1.0496662 1.0074186 2.3444073
1.1537337 1.0073158 2.3467758
1.2506287 1.0072682 2.3489819
1.3277951 1.0080212 2.3507371
-1.0494413 -0.23800977 2.4243467
-0.94931352 -0.26842296 2.4224563
-0.84984624 -0.2680248 2.4188621
-0.74166971 -0.26757723 2.4277315
-0.64939886 -0.26720038 2.4309068
-0.54891706 -0.26679763 2.4276855
-0.44873267 -0.26639706 2.4235988
-0.35522616 -0.26601824 2.4241531
-0.25022733 -0.2655797 2.436413
-0.15123311 -0.26518342 2.4327776
-0.04429153 -0.26473659 2.4454203
0.050658051 -0.26435217 2.445529
0.15065797 -0.26395181 2.4413733
0.25036019 -0.26355156 2.4381232
0.35085753 -0.26314822 2.4343913
0.43983296 -0.24224512 2.4350481
-1.0537014 -0.15009511 2.4215624
0.44627371 -0.15023202 2.4401016
-1.0541353 -0.050195292 2.4227362
0.44576728 -0.046964366 2.4438617
-1.0545669 0.050222717 2.4237292
0.44530198 0.050153021 2.4469252
-1.054993 0.15028587 2.4245315
0.44493368 0.15032071 2.4451709
-1.055388 0.24794646 2.424403
0.44457588 0.24979225 2.4430678
-1.0557323 0.34954852 2.4213057
0.44420886 0.34965166 2.4413188
-1.0561631 0.44952798 2.4223495
0.4438585 0.44932985 2.4388573
-1.056589 0.54958653 2.4231613
0.44349298 0.54942423 2.4369979
-1.0570239 0.64972156 2.4243233
0.44311926 0.6504215 2.4353302
-1.0405674 0.72474128 2.4236815
-0.94996369 0.73158079 2.4242043
-0.84997749 0.73198742 2.4255517
-0.74988019 0.73239446 2.4269001
-0.64842409 0.73280591 2.4274554
-0.5504359 0.73319763 2.4221418
-0.4482024 0.73361897 2.4292197
-0.34969437 0.73402137 2.4321511
-0.24992202 0.73442733 2.4337535
-0.15047365 0.73483133 2.4347043
-0.050477967 0.73523813 2.4364398
0.050081071 0.7356469 2.4375367
0.15028888 0.73605418 2.4390175
0.25018275 0.73646039 2.4402323
0.34973931 0.7368654 2.4418328
0.42990884 0.72967613 2.4387527
