# .PCD v0.7 - Point Cloud Data file format
VERSION 0.7
FIELDS x y z
SIZE 4 4 4
TYPE F F F
COUNT 1 1 1
WIDTH 387
HEIGHT 1
VIEWPOINT 0 0 0 1 0 0 0
POINTS 387
DATA ascii
-1.3154896 -0.53409356 2.3068814
-1.2498019 -0.53444535 2.3083999
-1.1490631 -0.53498423 2.310729
-1.0501815 -0.5355137 2.313015
-0.95110434 -0.5360443 2.3153059
-0.850097 -0.5347597 2.3176372
-0.74821001 -0.53503901 2.3199916
-0.64778036 -0.53458339 2.3223116
-0.54865789 -0.53400749 2.3246002
-0.44914532 -0.53403509 2.3268998
-0.34831187 -0.53297222 2.3292277
-0.24993557 -0.53349245 2.331502
-0.15136559 -0.53401393 2.3337805
-0.050500005 -0.53454787 2.3361127
0.04975488 -0.53396988 2.3384268
0.14972417 -0.53349704 2.3407362
0.2492037 -0.5319922 2.3430312
0.3507438 -0.53244215 2.3453791
0.45049044 -0.5329659 2.3476851
0.54987979 -0.53183347 2.3499787
0.65057313 -0.53189576 2.3523057
0.7487734 -0.53240889 2.3545761
0.84930581 -0.53293431 2.3569002
0.94989812 -0.53337371 2.3592255
1.0495942 -0.5310787 2.3615236
1.1499366 -0.53024477 2.3638403
1.2512606 -0.53077036 2.366183
1.3333255 -0.53119594 2.3680801
-1.3153749 -0.44884926 2.3066802
-1.249693 -0.44914496 2.3081987
-1.1489625 -0.4495981 2.3105268
-1.0500902 -0.45004267 2.3128133
-0.95102131 -0.45048857 2.3151033
-0.85104752 -0.45139605 2.317416
-0.74954635 -0.45094293 2.3197594
-0.64900374 -0.45090944 2.3220832
-0.54813457 -0.44948745 2.3244107
-0.44854546 -0.44855466 2.3267097
-0.34828213 -0.44900143 2.3290274
-0.24991414 -0.44943988 2.3313012
-0.15135247 -0.44987932 2.3335803
-0.050495666 -0.45032862 2.3359115
0.050562982 -0.45077911 2.3382475
0.14971158 -0.45122111 2.3405402
0.24896768 -0.44964319 2.3428288
0.35071439 -0.45000309 2.3451817
0.45045236 -0.4504455 2.3474867
0.5508669 -0.44945893 2.3498044
0.65051776 -0.44921321 2.3521061
0.74962288 -0.44912186 2.3543973
0.85010427 -0.4506194 2.3567221
0.94995528 -0.45053521 2.3590283
1.0482517 -0.45024902 2.3612995
1.1498413 -0.44928724 2.3636451
1.2511567 -0.44973254 2.3659871
1.3332149 -0.45009306 2.3678837
-1.3152407 -0.34906963 2.3064454
-1.2495652 -0.34929958 2.3079634
-1.1488451 -0.34965158 2.3102908
-1.0499815 -0.34999749 2.3125765
-0.95092404 -0.3503443 2.314867
-0.85166878 -0.35069144 2.3171616
-0.75014257 -0.35104647 2.3195074
-0.64841121 -0.35140264 2.3218591
-0.54902458 -0.35107142 2.3241546
-0.44850039 -0.35000515 2.3264744
-0.3477155 -0.34937206 2.3288028
-0.2498883 -0.34859544 2.3310611
-0.15133689 -0.3489359 2.3333395
-0.050490454 -0.34928486 2.3356705
0.050557736 -0.34963378 2.338006
0.14969614 -0.3499763 2.3402984
0.24903041 -0.35031989 2.3425932
0.35067871 -0.3506712 2.344943
0.45040676 -0.35101587 2.3472488
0.54984498 -0.34996799 2.3495436
0.6504516 -0.34958801 2.3518674
0.75077134 -0.34993282 2.3541861
0.85128748 -0.35027796 2.3565094
0.94985831 -0.35061654 2.3587887
1.0488617 -0.35066909 2.3610759
1.1497238 -0.34917358 2.3634026
1.2510293 -0.34951961 2.3657441
1.3330783 -0.34979963 2.3676412
-1.3151067 -0.24931031 2.30621
-1.2494375 -0.24947429 2.3077283
-1.1487272 -0.249726 2.3100555
-1.0498751 -0.24997313 2.3123407
-0.95082653 -0.25022048 2.3146298
-0.85158193 -0.2504684 2.3169239
-0.75006527 -0.25072211 2.3192699
-0.64834511 -0.25097632 2.3216219
-0.54849952 -0.25122583 2.3239288
-0.44845513 -0.2514756 2.3262413
-0.34874034 -0.25078508 2.3285429
-0.24986313 -0.24987149 2.3308256
-0.15132159 -0.25011578 2.3331034
-0.050485335 -0.25036567 2.3354347
0.050903022 -0.24893431 2.3377733
0.14968061 -0.24875304 2.3400555
0.24900466 -0.248997 2.34235
0.35064244 -0.24924678 2.3446999
0.45035988 -0.24949174 2.3470047
0.55027521 -0.24973719 2.349313
0.6503855 -0.24998312 2.3516281
0.75069499 -0.2502296 2.3539462
0.85120082 -0.2504766 2.3562691
0.94976097 -0.25071871 2.3585474
1.0482768 -0.25069344 2.3608239
1.1496056 -0.24908021 2.3631606
1.2509011 -0.249327 2.3655024
1.3329414 -0.24952675 2.3673987
-1.3149725 -0.14957125 2.3059745
-1.2499768 -0.1501184 2.3074777
-1.1493143 -0.1493637 2.3098018
-1.0497673 -0.14996871 2.3121037
-0.95072913 -0.15011726 2.3143926
-0.85149437 -0.15026595 2.3166862
-0.74998766 -0.1504181 2.319032
-0.64827824 -0.15057063 2.321383
-0.5484429 -0.15072031 2.3236895
-0.44840902 -0.15087026 2.3260012
-0.34817573 -0.15102053 2.3283179
-0.24983779 -0.15116787 2.3305905
-0.15130635 -0.15131553 2.3328676
-0.050480228 -0.1514667 2.3351977
0.05018821 -0.14996499 2.3375204
0.14966545 -0.14965853 2.3398185
0.24897934 -0.14980531 2.3421137
0.35060695 -0.14995541 2.344461
0.45031419 -0.15010294 2.3467662
0.55021852 -0.1502506 2.3490741
0.65031922 -0.15039857 2.3513887
0.75061804 -0.15054677 2.3537064
0.85111415 -0.15069535 2.3560295
0.94966412 -0.15084097 2.3583064
1.0497344 -0.15049529 2.3606181
1.1508948 -0.14960986 2.3629527
1.2507724 -0.14915511 2.3652599
1.3328049 -0.14927463 2.3671558
-1.3148385 -0.049852557 2.3057394
-1.2512363 -0.049884342 2.3072093
-1.1505491 -0.049934641 2.309536
-1.0458524 -0.048249539 2.3211033
-0.95048797 -0.083674937 2.3185713
-0.85127819 -0.083641 2.3195381
-0.74991906 -0.08374998 2.3203104
-0.64828604 -0.083649524 2.3214009
-0.54840547 -0.083727397 2.3235309
-0.44837832 -0.083810687 2.3258421
-0.34815192 -0.083894141 2.3281581
-0.24982062 -0.083976008 2.330431
-0.15080583 -0.083882309 2.333395
-0.05038628 -0.082291484 2.3412948
0.050414592 -0.082334518 2.3422303
0.14964131 -0.08222378 2.3433816
0.24918096 -0.08234033 2.3440602
0.35067269 -0.08238177 2.3449383
0.46196175 -0.067123353 2.3504851
0.55016249 -0.050784364 2.3488355
0.65025318 -0.050834406 2.3511488
0.75054199 -0.050884467 2.3534663
0.85102683 -0.050934687 2.3557882
0.94956702 -0.050983936 2.3580649
1.0504473 -0.051034298 2.3603966
1.1514336 -0.049052481 2.3627257
1.2506444 -0.04900359 2.3650181
1.3326679 -0.049042899 2.3669126
-1.3147044 0.049845804 2.3055043
-1.2511085 0.049877532 2.3069737
-1.1504313 0.049927846 2.3093004
-1.0447966 0.049964443 2.3241258
0.48873836 0.050293259 2.3584168
0.55010575 0.050777327 2.348592
0.65018559 0.050827336 2.3509045
0.75046331 0.050877415 2.3532214
0.85093826 0.050927617 2.3555431
0.94946784 0.050976839 2.3578188
1.0503378 0.051027238 2.3601503
1.1509956 0.049522039 2.3624797
1.2505193 0.048997037 2.3647814
1.3325349 0.049036331 2.3666756
-1.3145701 0.14952381 2.3052692
-1.2509809 0.14961904 2.3067386
-1.1503145 0.14977001 2.3090637
-1.0447868 0.14996283 2.3243523
0.48844069 0.15009205 2.35814
0.55004996 0.15020284 2.3483531
0.65011925 0.15035056 2.3506649
0.75038749 0.15049891 2.3529816
0.85085166 0.15064731 2.3553028
0.94937092 0.15079294 2.3575783
1.05023 0.15094201 2.3599088
1.1516911 0.14950156 2.3622565
1.2503908 0.14910786 2.3645384
1.3323976 0.14922723 2.3664331
-1.3144366 0.24918161 2.3050351
-1.2508533 0.24934027 2.3065031
-1.1501968 0.24959165 2.3088284
-1.0449033 0.24989837 2.3242774
0.48839 0.24982707 2.3567204
0.54999423 0.24960798 2.3481147
0.65005326 0.24985369 2.3504262
0.75031114 0.25009978 2.3527422
0.85076457 0.25034657 2.355062
0.94927406 0.25058845 2.357338
1.0501229 0.2508361 2.3596683
1.1506441 0.2499954 2.3619928
1.2502629 0.24919818 2.3642962
1.3322617 0.24939786 2.36619
-1.3143026 0.34881899 2.3047998
-1.2507257 0.3490411 2.3062677
-1.1500791 0.3493931 2.3085926
-1.0448965 0.34976971 2.3245001
0.48818448 0.35055974 2.355938
0.54993707 0.35110724 2.3478708
0.64968294 0.34971648 2.3501782
0.75023407 0.3496806 2.3525021
0.85067797 0.35002527 2.3548219
0.94917703 0.35036373 2.3570979
1.0500156 0.35070992 2.3594263
1.1515783 0.34992588 2.3617747
1.2501349 0.34926778 2.3640549
1.3321247 0.34954771 2.365948
-1.3141685 0.44843605 2.3045642
-1.2505981 0.44872162 2.3060327
-1.1499621 0.4491739 2.3083572
-1.0449288 0.44971919 2.3245132
0.48799419 0.44981468 2.3553743
0.5498808 0.45047158 2.3476319
0.65021586 0.44915551 2.3499534
0.75015759 0.44924104 2.3522627
0.85059166 0.44968399 2.3545823
0.94908011 0.45011851 2.3568573
1.0499082 0.45056322 2.3591862
1.1504922 0.45037857 2.3615098
1.2500074 0.44931746 2.3638124
1.3319881 0.44967744 2.3657057
-1.3140316 0.55010748 2.3043251
-1.2505524 0.54847127 2.3057952
-1.1498443 0.54893458 2.3081214
-1.0449612 0.54967779 2.3245711
0.48782086 0.54973191 2.3550332
0.54982519 0.54981583 2.3473928
0.64985335 0.55035663 2.3497038
0.75008047 0.55089897 2.3520179
0.85019928 0.54970258 2.3543341
0.94898367 0.54985309 2.3566167
1.0498008 0.55039632 2.3589447
1.1512671 0.55027622 2.3612895
1.249879 0.54934633 2.3635702
1.3318521 0.54978609 2.3654635
-1.3138945 0.65175784 2.304085
-1.2507308 0.64941871 2.3055496
-1.1497271 0.64867479 2.3078852
-1.045788 0.6492871 2.322547
0.48696101 0.65066338 2.3601563
0.54932374 0.65065187 2.3471398
0.64978713 0.6497786 2.3494644
0.75000316 0.65041828 2.3517787
0.85071403 0.64929777 2.3541086
0.94888681 0.64956719 2.3563759
1.0496936 0.65020871 2.3587034
1.1504638 0.65058321 2.3610313
1.249751 0.64935452 2.363328
1.3317157 0.64987481 2.3652205
-1.313761 0.75131309 2.3038502
-1.2497382 0.75099641 2.3053305
-1.1498343 0.74865091 2.3076437
-1.0459313 0.74943078 2.3221371
0.48671877 0.75004905 2.3598542
0.550165 0.74992406 2.3469231
0.64972085 0.74917948 2.3492258
0.74992692 0.74991858 2.3515387
0.85032904 0.75065708 2.353857
0.94834149 0.74992359 2.3561237
1.0495864 0.75000137 2.358463
1.1508236 0.75045639 2.360801
1.2496228 0.74934286 2.3630874
1.3315792 0.74994224 2.3649783
-1.3136271 0.85084814 2.3036158
-1.250083 0.85138983 2.305083
-1.1497946 0.8493495 2.3074048
-1.0459979 0.8493405 2.322238
0.48661831 0.84968203 2.3588557
0.54965621 0.84983915 2.3466725
0.64965326 0.85067511 2.3489816
0.74939573 0.85002851 2.3512874
0.85024279 0.85023391 2.3536172
0.9491325 0.84956408 2.3559039
1.0494795 0.84977281 2.3582225
1.150463 0.85061288 2.3605542
1.2493244 0.84950101 2.3628404
1.3314427 0.84999025 2.3647363
-1.3134962 0.94828987 2.303386
-1.2499579 0.9488939 2.304853
-1.149079 0.94853139 2.3071842
-1.0458816 0.9465493 2.315861
-0.9495123 0.95331502 2.3263946
-0.85010386 0.95430869 2.3278067
-0.75086957 0.95498645 2.3297591
-0.65111899 0.9537912 2.3322616
-0.55123371 0.95462263 2.3339295
-0.45195168 0.95592117 2.3344285
-0.35146934 0.95714623 2.3349617
-0.25161698 0.95642453 2.3372972
-0.15086487 0.95680314 2.3392994
-0.050328296 0.9575969 2.3411431
0.05038375 0.9583922 2.3430738
0.14906761 0.95784479 2.3455157
0.24902767 0.95798934 2.3472979
0.35021862 0.95879078 2.3492241
0.45215946 0.95583177 2.3511164
0.549155 0.95061153 2.34642
0.64958751 0.95003599 2.348743
0.75022 0.94945765 2.3510692
0.85015571 0.94979042 2.3533771
0.94923806 0.9511652 2.3556638
1.0499148 0.94913334 2.3579948
1.1503452 0.95046282 2.3603117
1.2495317 0.94943613 2.362606
1.3313067 0.95001721 2.3644946
-0.65166575 1.0004867 2.3185539
-0.55195564 1.0014799 2.3208554
-0.45204723 1.002475 2.3231614
-0.35194018 1.0034722 2.3254724
-0.24701367 1.002666 2.3278985
-0.15112768 1.0033754 2.3301127
-0.050420579 1.0043765 2.3324373
0.050487701 1.0053796 2.3347666
0.15413436 1.0050189 2.3371623
0.24868518 1.005244 2.3393469
0.35019225 1.0062509 2.3416898
0.44978115 1.0072391 2.3439884
0.55276918 1.0075122 2.3463676
0.64954937 1.0071068 2.3486049
0.74972886 1.0080984 2.3509176
0.85010421 1.009092 2.3532341
0.95067912 1.0100875 2.3555553
1.0514536 1.008963 2.3578873
1.1502755 1.0099391 2.3601685
1.2492884 1.0109171 2.3624535
1.3312224 1.0117266 2.3643451
-1.0169073 -0.035066344 2.4329293
-0.72217673 -0.068883978 2.4665956
-0.65128291 -0.068668894 2.4588933
-0.55137253 -0.068365768 2.4480395
-0.45010304 -0.068058535 2.4370377
-0.34973314 -0.067754023 2.4261336
-0.25026396 -0.067452237 2.4153275
-0.15384886 -0.067159764 2.404855
0.39088845 -0.065148264 2.4937115
0.47462356 -0.039270718 2.4566216
-1.0172107 0.050427943 2.4336569
0.48288178 0.049834471 2.4473572
-1.0174569 0.14853978 2.4300425
0.48256919 0.14983433 2.4463696
-1.0177913 0.24996144 2.4297631
0.48227611 0.25016099 2.4444861
-1.0181415 0.34989533 2.4304154
0.48198059 0.34992447 2.44279
-1.0185014 0.44989333 2.4314597
0.48167443 0.45042959 2.4414506
-1.0188563 0.55040616 2.4322155
0.4813706 0.55040824 2.4400866
-1.0191064 0.65146083 2.4283524
0.48083571 0.65011817 2.4487514
-1.0194405 0.74999917 2.4284852
0.48054606 0.75001591 2.446779
-1.0197883 0.84982365 2.4290435
0.48024142 0.84978437 2.4454777
-1.016371 0.92031419 2.4302688
-0.95043039 0.9302929 2.4294136
-0.85092109 0.93062449 2.430784
-0.74802434 0.93097317 2.4344714
-0.65015692 0.93130445 2.4380076
-0.55004162 0.93163764 2.4392197
-0.44778141 0.93196774 2.4363809
-0.34972295 0.93228799 2.4350932
-0.24984638 0.93261892 2.4358854
-0.15020826 0.93294972 2.4367499
-0.050197743 0.9332819 2.4376154
0.050507829 0.93361658 2.4387813
0.15006316 0.93396145 2.4453394
0.25010195 0.93429273 2.4459159
0.35021317 0.93462521 2.4469461
0.44738463 0.93170828 2.446847
