# .PCD v0.7 - Point Cloud Data file format
VERSION 0.7
FIELDS x y z
SIZE 4 4 4
TYPE F F F
COUNT 1 1 1
WIDTH 469
HEIGHT 1
VIEWPOINT 0 0 0 1 0 0 0
POINTS 469
DATA ascii
-1.3146634 -0.80283219 2.2909548
-1.1248342 -0.80020523 2.2952592
-1.0511564 -0.80078864 2.2969329
-0.99583977 -0.80122679 2.2981892
-1.3105334 -0.75123578 2.2909513
-1.2488548 -0.75051671 2.2923496
-1.1498141 -0.74935192 2.2945967
-1.0511121 -0.74902755 2.2968359
-0.95677722 -0.74887747 2.2989774
-1.3104261 -0.65005451 2.2907631
-1.2497778 -0.6493088 2.2921383
-1.1492198 -0.64902568 2.2944212
-1.0510277 -0.64965641 2.2966518
-0.95277101 -0.64951479 2.2988813
-1.3103186 -0.54889005 2.2905741
-1.2491616 -0.54922277 2.2919633
-1.1491275 -0.54976726 2.2942359
-1.0509427 -0.55030185 2.2964659
-0.9505139 -0.55084813 2.2987468
-0.89620489 -0.53097981 2.299942
-1.3102131 -0.44980609 2.290391
-1.2490615 -0.45007885 2.2917798
-1.1490357 -0.45052502 2.2940512
-1.050858 -0.45096281 2.2962809
-0.95043701 -0.45141062 2.2985606
-0.8927924 -0.44533104 2.2998579
-1.3101074 -0.35073823 2.2902062
-1.2498759 -0.35144904 2.291575
-1.1498998 -0.35079145 2.2938442
-1.0507731 -0.35164011 2.2960956
-0.95036054 -0.35198939 2.2983756
-0.88875568 -0.34844479 2.2997673
-1.3100002 -0.24962284 2.2900183
-1.2508978 -0.24976911 2.2913604
-1.1508902 -0.25001666 2.2936323
-1.0772971 -0.25019872 2.2953007
-1.3098921 -0.14852391 2.2898302
-1.2507954 -0.14861096 2.291172
-1.1507965 -0.14875823 2.2934425
-1.0772084 -0.14886659 2.295114
-1.309787 -0.049504425 2.2896464
-1.2506942 -0.049533438 2.2909868
-1.1507038 -0.049582519 2.2932568
-1.0771534 -0.049619738 2.2949984
-1.3096813 0.049499128 2.2894616
-1.2505934 0.049528137 2.2908032
-1.1506113 0.04957718 2.2930734
-1.0771224 0.049617808 2.2949314
-1.3095762 0.14848682 2.2892771
-1.250493 0.14857368 2.2906189
-1.1505184 0.14872086 2.2928882
-1.077089 0.14884962 2.2948651
-1.3094689 0.24952005 2.2890894
-1.2503905 0.24966635 2.2904303
-1.150424 0.24991357 2.2926998
-1.0772581 0.24963379 2.2947402
-1.309361 0.35053709 2.288902
-1.2502879 0.35074252 2.2902427
-1.150329 0.35108998 2.2925103
-1.0788155 0.35133839 2.2941346
-1.309256 0.44947624 2.2887187
-1.250187 0.44973946 2.2900586
-1.1502354 0.45018488 2.2923257
-1.0787294 0.45050362 2.2939491
-1.3091489 0.55046022 2.2885318
-1.2501677 0.54880959 2.2898726
-1.1501439 0.54926425 2.2921414
-1.078642 0.54965299 2.2937648
-1.3090413 0.65142781 2.288343
-1.2499056 0.6498307 2.2896888
-1.150548 0.64958221 2.2919436
-1.0785831 0.64880371 2.2936394
-1.3089364 0.75031894 2.2881591
-1.249882 0.75075847 2.2894993
-1.1494534 0.75065953 2.2917795
-1.0501095 0.74984628 2.294035
-0.94951111 0.74885803 2.2963214
-0.84898919 0.74960279 2.2986026
-0.79317498 0.75622696 2.2998564
-1.308831 0.84919393 2.2879758
-1.2497811 0.84969074 2.289314
-1.1498624 0.85053247 2.2915809
-1.0494654 0.85102135 2.2938597
-0.94981045 0.84966815 2.2961249
-0.84892058 0.84892774 2.2984161
-0.78913808 0.85315615 2.2997658
-1.3087302 0.9439342 2.2877989
-1.2496848 0.94448709 2.2891395
-1.1497735 0.94542205 2.2914045
-1.0496656 0.9463588 2.2936749
-0.94893783 0.94678801 2.2959616
-0.84885305 0.94616932 2.2982349
-0.78511894 0.94924939 2.2996755
-0.90586048 -0.75632304 2.3001475
-0.85002387 -0.75051624 2.3014045
-0.75124002 -0.7512489 2.303648
-0.65016216 -0.74950081 2.3059392
-0.54895407 -0.74858576 2.3082347
-0.44958216 -0.74931818 2.3104918
-0.35050979 -0.74928671 2.3127413
-0.25025311 -0.74869871 2.3150163
-0.1502959 -0.74943298 2.3172867
-0.049840841 -0.74885213 2.319566
0.050207902 -0.74671948 2.3218329
0.15075538 -0.74745554 2.3241174
0.25150102 -0.74819034 2.3264053
0.35002509 -0.74718976 2.3286393
0.44936931 -0.74753571 2.3308959
0.55123472 -0.74746656 2.3332083
0.64957857 -0.74581277 2.3354385
0.74972945 -0.74550968 2.3377111
0.84953105 -0.74623144 2.3399775
0.94920319 -0.74661601 2.3422418
1.0497169 -0.74556875 2.3445206
1.1504399 -0.74592936 2.3468087
1.2506828 -0.74490309 2.3490818
1.3275403 -0.74417567 2.3508251
-0.90245157 -0.66767401 2.3000574
-0.84995526 -0.65094829 2.3012171
-0.75117958 -0.65158278 2.3034608
-0.6505838 -0.64908773 2.3057396
-0.5489099 -0.64872152 2.3080482
-0.44954553 -0.64935613 2.3103044
-0.34998706 -0.64999151 2.3125668
-0.2502332 -0.65062857 2.3148317
-0.15028395 -0.65126669 2.3171015
-0.050671566 -0.6508792 2.3193624
0.050433874 -0.64861465 2.3216534
0.15074331 -0.64899898 2.3239317
0.25148073 -0.64963788 2.3262191
0.3503111 -0.65026474 2.328464
0.449334 -0.65089321 2.3307123
0.55015719 -0.65076488 2.3330021
0.65006852 -0.65006131 2.3352692
0.75011379 -0.64918315 2.3375382
0.8494643 -0.64921325 2.3397934
0.94945365 -0.64984339 2.3420649
1.0496361 -0.65047479 2.3443406
1.1497163 -0.65076518 2.3466129
1.2505856 -0.64962381 2.3489001
1.3277476 -0.65010881 2.3506527
-0.84804744 -0.55220693 2.3010757
-0.75062847 -0.55070436 2.3032835
-0.65017307 -0.54841304 2.3055596
-0.5488652 -0.5488739 2.3078604
-0.44950914 -0.54941088 2.310117
-0.34995893 -0.54994822 2.3123772
-0.25021303 -0.55048722 2.3146429
-0.1502717 -0.55102682 2.3169127
-0.050134283 -0.55156785 2.3191876
0.050128568 -0.55010706 2.3214612
0.15073106 -0.54846448 2.3237412
0.25146019 -0.54900396 2.3260288
0.35028243 -0.54953372 2.3282738
0.44929722 -0.5500648 2.3305233
0.55061555 -0.55060786 2.3328238
0.65001595 -0.55114061 2.3350816
0.74915826 -0.5501985 2.3373308
0.84939599 -0.5501008 2.3396049
0.94991738 -0.54964763 2.3418865
1.0495501 -0.54905683 2.3441472
1.1499219 -0.54959089 2.346427
1.2504845 -0.5501259 2.3487103
1.3276397 -0.55053627 2.3504634
-0.84345472 -0.45144388 2.3009894
-0.75154728 -0.44903201 2.3030715
-0.65003777 -0.44859523 2.3053756
-0.54882103 -0.44904244 2.3076727
-0.44947278 -0.44948143 2.3099296
-0.34993017 -0.4499214 2.3121915
-0.25019255 -0.45036227 2.314455
-0.15025942 -0.45080364 2.3167238
-0.050130222 -0.45124614 2.3189981
0.050035439 -0.45152122 2.3212724
0.15071893 -0.45003963 2.3235552
0.2515237 -0.44847089 2.3258412
0.3502537 -0.44881931 2.3280833
0.44926029 -0.44925287 2.3303316
0.55057043 -0.44969639 2.3326325
0.64996302 -0.45013154 2.3348899
0.74955004 -0.45056751 2.3371513
0.84932792 -0.45100421 2.3394177
0.94876128 -0.45049441 2.3416731
1.0494654 -0.44976813 2.3439581
1.1498268 -0.45020556 2.3462372
1.2505524 -0.45045301 2.3485243
1.3275301 -0.44886187 2.3502688
-1.0305417 -0.30136582 2.3396671
-0.95012534 -0.30103034 2.3366032
-0.8412469 -0.34348089 2.3082724
-0.752258 -0.34583414 2.3059201
-0.64998537 -0.34887952 2.3051889
-0.54877645 -0.34922689 2.3074858
-0.44943625 -0.34956872 2.3097427
-0.3499018 -0.34991044 2.3120022
-0.25017226 -0.35025358 2.3142672
-0.15024734 -0.35059679 2.3165367
-0.050126124 -0.35094059 2.3188086
0.050191768 -0.35128543 2.3210878
0.15070687 -0.35163093 2.3233697
0.25133228 -0.34997204 2.3256514
0.35031313 -0.35012409 2.3278983
0.44922364 -0.34845725 2.3301406
0.55052495 -0.34880152 2.332442
0.64990962 -0.34913909 2.3346977
0.74948823 -0.34947741 2.3369591
0.84925783 -0.34981591 2.3392246
0.94922245 -0.35015532 2.3414955
1.0493808 -0.35049546 2.3437691
1.1497349 -0.35083663 2.3460472
1.250119 -0.35099989 2.3483274
1.327423 -0.34932202 2.3500791
-1.0571886 -0.250126 2.3472068
-0.72632235 -0.29987341 2.3668702
-0.64932215 -0.29951426 2.3578167
-0.54929006 -0.29903081 2.3544827
-0.45031473 -0.29855412 2.3502553
-0.35023755 -0.29807255 2.3464665
-0.24987984 -0.29774481 2.3438697
-0.14982274 -0.29752281 2.3425674
-0.049914829 -0.29730389 2.3403409
0.050809782 -0.29683459 2.3522079
0.14984453 -0.29652798 2.351048
0.25078499 -0.29628673 2.3496332
0.34963843 -0.29614303 2.3490026
0.46227604 -0.25266826 2.3391886
0.55048084 -0.25002444 2.3322542
0.64985746 -0.25026634 2.334511
0.74993694 -0.24969915 2.3367813
0.84918821 -0.24864417 2.3390326
0.9491446 -0.24888532 2.3413022
1.0492944 -0.24912705 2.3435762
1.1496401 -0.24936928 2.3458543
1.2501794 -0.2496119 2.3481369
1.3273154 -0.24979816 2.349889
-1.057709 -0.14997827 2.3483622
0.46541029 -0.15087345 2.3374159
0.55043709 -0.15126365 2.3320684
0.64980525 -0.15140982 2.3343236
0.74886155 -0.15078691 2.3365712
0.84911996 -0.14959607 2.3388445
0.94906759 -0.14974125 2.341114
1.0492098 -0.14988667 2.3433878
1.149547 -0.15003237 2.3456652
1.2500786 -0.15017822 2.3479476
1.3272088 -0.15029031 2.3496993
-1.0582217 -0.049951639 2.3491979
0.46528807 -0.050280627 2.3367176
0.55039179 -0.050417483 2.3318765
0.64975214 -0.050466299 2.3341324
0.74930573 -0.050515134 2.3363924
0.8490513 -0.050564125 2.3386571
0.94899178 -0.050613165 2.3409255
1.049125 -0.050662301 2.3431988
1.1494542 -0.050711535 2.3454766
1.2499778 -0.050760884 2.3477576
1.3271015 -0.050798744 2.3495095
-1.0587406 0.049984299 2.3503516
0.46518007 0.050264664 2.3361523
0.55034697 0.050412007 2.3316855
0.6496985 0.050460774 2.3339407
0.74924445 0.050509598 2.3362005
0.85067856 0.050910056 2.3385019
0.95058358 0.050248958 2.340771
1.0490392 0.050656751 2.3430061
1.1493607 0.050705981 2.3452826
1.2498744 0.050755303 2.3475654
1.3269918 0.050793167 2.3493159
-1.0592648 0.14978366 2.3517342
0.46501061 0.15087627 2.335757
0.55030167 0.15122505 2.3314946
0.64964563 0.15137126 2.3337495
0.7490983 0.15143333 2.3360062
0.85103798 0.14956154 2.338325
0.95096493 0.14970669 2.3405929
1.0489547 0.14984889 2.3428175
1.1492658 0.14999448 2.3450935
1.2497737 0.15014042 2.3473744
1.3268855 0.1502524 2.3491251
-1.0597756 0.25006312 2.3524632
0.46472028 0.24983735 2.3352892
0.55025756 0.24992177 2.3313076
0.64959347 0.25016344 2.3335626
0.74921119 0.2503145 2.3358235
0.85096991 0.24854745 2.3381362
0.95088857 0.24878851 2.3404043
1.0488701 0.24902476 2.342628
1.1491742 0.24926689 2.3449049
1.2496728 0.24950945 2.3471847
1.3267771 0.24969548 2.3489358
-1.0601863 0.34955269 2.3489389
0.46454191 0.34913573 2.3352582
0.55021352 0.3486028 2.3311203
0.64954108 0.34893969 2.333375
0.7490629 0.34927765 2.3356333
0.85089976 0.34962291 2.337945
0.95081007 0.3499622 2.3402126
1.0506589 0.35053298 2.342478
1.1509392 0.35040197 2.3447542
1.2495703 0.35097584 2.346993
1.326669 0.35123783 2.3487422
-1.0605959 0.45022905 2.3451149
0.46323654 0.44934019 2.3374918
0.55016828 0.44936678 2.3309305
0.64948797 0.44980121 2.3331835
0.74900097 0.45023665 2.3354418
0.85082984 0.4506821 2.3377528
0.95073193 0.4511191 2.3400195
1.050318 0.45025742 2.3422821
1.1511229 0.4498845 2.3445716
1.249469 0.45031273 2.3468032
1.3265611 0.45064843 2.348552
-1.0611185 0.55043471 2.3463609
0.46322289 0.54979271 2.3366923
0.55012345 0.55011433 2.330739
0.64943486 0.55064636 2.3329921
0.74894029 0.55117923 2.3352501
0.85030884 0.55024952 2.3375533
0.95065564 0.5501529 2.3398311
1.0512537 0.54934996 2.3421168
1.1510292 0.54911077 2.3443816
1.249368 0.54963326 2.3466141
1.3264539 0.55004287 2.3483627
-1.0521787 0.66442537 2.3462205
-0.9500041 0.69900733 2.3444631
-0.85013956 0.69949824 2.3457649
-0.77292174 0.699866 2.3407462
0.46298343 0.65018761 2.3361542
0.55007815 0.65084559 2.3305483
0.64908844 0.65112001 2.3327944
0.74887973 0.65000302 2.3350625
0.85113692 0.64913946 2.3373852
0.95057952 0.64916998 2.3396428
1.0506606 0.6498003 2.3419142
1.1509337 0.65043145 2.3441889
1.2492657 0.65105045 2.3464191
1.3262612 0.64958996 2.3481703
-0.74140519 0.7425108 2.3085427
-0.65094066 0.73990738 2.3132288
-0.5502758 0.74079442 2.3152037
-0.44929621 0.73923653 2.3180175
-0.34966338 0.73988193 2.3201818
-0.25030747 0.74088061 2.321523
-0.15015484 0.74250823 2.3218381
-0.050094433 0.74319625 2.3239012
0.049741529 0.74264693 2.3262167
0.15051651 0.74262881 2.3284845
0.25099042 0.74332571 2.330699
0.34991688 0.74371743 2.3330181
0.44704989 0.74792057 2.3311625
0.54963338 0.75104946 2.330349
0.6496315 0.74981081 2.3326218
0.74881935 0.74881077 2.3348749
0.85062361 0.74955112 2.3371851
0.95050114 0.7502777 2.3394506
1.0505737 0.75100577 2.3417213
1.150601 0.74990958 2.3439934
1.2491646 0.75033891 2.3462307
1.3263222 0.74894112 2.347985
-0.74003351 0.84885955 2.3008885
-0.65141404 0.85058284 2.302896
-0.55030638 0.85143024 2.3051906
-0.44941285 0.8490898 2.3074861
-0.34956113 0.84895355 2.3097525
-0.24992853 0.8497842 2.3120129
-0.15010078 0.85061657 2.3142765
-0.05007723 0.85145068 2.3165464
0.050344184 0.84923494 2.3188298
0.15056001 0.84894449 2.3211052
0.25117457 0.84977907 2.3233879
0.34988436 0.85059834 2.3256271
0.44862446 0.85124964 2.3278682
0.55039811 0.84962255 2.3301804
0.64927727 0.84888285 2.332427
0.74875832 0.84970444 2.3346834
0.85055375 0.85054451 2.336993
0.95002598 0.85083324 2.3392501
1.0504895 0.85008764 2.3415329
1.150982 0.84907031 2.3438168
1.2490631 0.84961075 2.3460419
1.3261302 0.8502441 2.3477898
-0.73595399 0.94620955 2.3007975
-0.65136278 0.94801366 2.3027141
-0.55026269 0.94895828 2.3050082
-0.4484506 0.94867557 2.3073199
-0.34953272 0.94875348 2.3095648
-0.24990813 0.9496817 2.311825
-0.1500885 0.95061195 2.3140883
-0.050073121 0.95154405 2.3163574
0.050431028 0.94864136 2.3186452
0.15054773 0.94923472 2.3209164
0.25115398 0.95016807 2.3231983
0.3498559 0.95108408 2.3254375
0.4484686 0.95035154 2.3276772
0.54994512 0.94874543 2.3299837
0.65082705 0.95007515 2.3322716
0.75026792 0.95018905 2.3345294
0.84995919 0.95066124 2.3367915
0.95075244 0.94977522 2.3390808
1.050405 0.94915283 2.3413444
1.1506547 0.95007479 2.3436186
1.2488756 0.95088977 2.3458469
1.3260236 0.94957376 2.3476002
0.050136667 1.0004808 2.3185403
0.15054138 1.0014638 2.3208179
0.25114352 1.0024484 2.3230999
0.349841 1.0034143 2.3253388
0.45484269 1.0027044 2.3277237
0.54992074 1.0032755 2.3298805
0.65131032 1.0042659 2.3321805
0.75078118 1.0052375 2.3344367
0.85557038 1.0051727 2.3368156
0.95030433 1.0050809 2.3389664
1.0503563 1.0060561 2.3412364
1.1506013 1.0070331 2.3435097
1.2495749 1.0078772 2.3457551
1.3259616 1.0066298 2.3474913
-1.032385 -0.3012014 2.4229341
-0.95057571 -0.3008652 2.4202302
-0.8583504 -0.30040091 2.4264987
-0.7906692 -0.30005983 2.4312444
-1.0589232 -0.24976884 2.4236181
-0.73969579 -0.29981411 2.4292536
-0.64902818 -0.29937705 2.4257123
-0.54162979 -0.29883441 2.4339712
-0.45088506 -0.29838744 2.4352024
-0.35049033 -0.29790279 2.4316447
-0.24931507 -0.29741517 2.4276643
-0.14957218 -0.29693511 2.4233501
-0.05015206 -0.296455 2.4198272
0.052112665 -0.29590148 2.4461827
0.1498927 -0.29541996 2.4473732
0.25089687 -0.29493302 2.4433396
0.35048458 -0.29445359 2.4389629
0.4366093 -0.25541705 2.4389727
-1.0593312 -0.15132201 2.4201503
0.44050306 -0.15032731 2.4450355
-1.0598457 -0.050154291 2.4207902
0.44006908 -0.050074369 2.4423528
-1.0603683 0.050187256 2.4219847
0.43963036 0.050007824 2.439918
-1.0608916 0.15062785 2.4231799
0.43918711 0.14986168 2.4377315
-1.0614086 0.25061741 2.4241962
0.43875578 0.24953596 2.4350641
-1.0619256 0.350696 2.42522
0.43828389 0.34774792 2.4344964
-1.0623353 0.45067579 2.4215286
0.43762136 0.4508082 2.4412522
-1.0628194 0.548684 2.4215207
0.43719101 0.55069637 2.4384906
-1.0529205 0.66552365 2.4178836
-0.95033991 0.69914865 2.4177821
-0.85002255 0.69964302 2.4194911
-0.78789634 0.69994152 2.4165018
0.43674728 0.65035671 2.4363759
-0.73821372 0.70019567 2.422226
-0.64895809 0.70063347 2.422694
-0.54801506 0.70114398 2.4312742
-0.44947815 0.70163131 2.4340065
-0.349958 0.70212144 2.4355376
-0.24794738 0.70261973 2.435132
-0.15025155 0.70309007 2.4311357
-0.050410479 0.70358258 2.433243
0.050457921 0.70407963 2.4349613
0.15057974 0.70457202 2.4362605
0.24996324 0.70506173 2.4380884
0.3499268 0.70555443 2.4399297
0.41988412 0.70567787 2.4404864
