# .PCD v0.7 - Point Cloud Data file format
VERSION 0.7
FIELDS x y z
SIZE 4 4 4
TYPE F F F
COUNT 1 1 1
WIDTH 463
HEIGHT 1
VIEWPOINT 0 0 0 1 0 0 0
POINTS 463
DATA ascii
-1.3111811 -0.70522541 2.2956989
-1.2498909 -0.70565486 2.2970972
-1.1619244 -0.70419967 2.2991023
-1.3111629 -0.64937782 2.2956686
-1.2498729 -0.64977336 2.297065
-1.1611161 -0.64974433 2.2990894
-1.3111316 -0.55009663 2.2956119
-1.2498413 -0.55043137 2.2970092
-1.1598328 -0.55092335 2.2990623
-1.3110996 -0.45082003 2.2955561
-1.2498149 -0.45109457 2.2969546
-1.1583327 -0.45100829 2.2990394
-1.3110677 -0.35154834 2.2955003
-1.2492964 -0.3505365 2.2969081
-1.1575571 -0.34983265 2.2989995
-1.3110353 -0.25021368 2.2954431
-1.250242 -0.24917804 2.2968297
-1.1556507 -0.24852872 2.298986
-1.3110026 -0.14888386 2.2953858
-1.2497203 -0.14897448 2.2967844
-1.1547471 -0.14857578 2.2989502
-1.3109707 -0.049626868 2.295331
-1.2496924 -0.049657069 2.2967288
-1.1535461 -0.049704481 2.2989204
-1.3109387 0.049625263 2.295275
-1.2496585 0.049655512 2.2966719
-1.1519661 0.050096229 2.2989004
-1.3109068 0.14887251 2.2952182
-1.2496314 0.14896318 2.2966168
-1.151265 0.14926639 2.2988586
-1.3108742 0.25018251 2.2951624
-1.2500937 0.24940607 2.2965493
-1.1493659 0.24851321 2.298847
-1.3108423 0.35148758 2.2951062
-1.2490698 0.35073408 2.2965145
-1.1493372 0.34998095 2.2987895
-1.0960739 0.37917107 2.2999876
-1.3108104 0.45072016 2.2950497
-1.2495341 0.45099455 2.2964468
-1.149309 0.45144352 2.2987323
-1.0960544 0.45168194 2.2999468
-1.3107781 0.54994798 2.2949936
-1.2495084 0.55028254 2.296392
-1.1492816 0.5508306 2.2986774
-1.094215 0.55570829 2.2999296
-1.3107463 0.64917111 2.2949393
-1.2494744 0.64956647 2.2963357
-1.1492522 0.65021282 2.2986207
-1.0935887 0.65313083 2.2998884
-1.3107851 0.74874526 2.2948802
-1.2494473 0.74884486 2.2962797
-1.1492251 0.74958974 2.298564
-1.0918751 0.75001645 2.2998724
-1.3106135 0.85000294 2.2948265
-1.2498232 0.84959716 2.2962141
-1.1491966 0.84896243 2.2985086
-1.0907607 0.85302359 2.2998383
-1.3106509 0.9468112 2.2947705
-1.2489314 0.94676948 2.2961786
-1.14917 0.94626027 2.2984533
-1.0897725 0.94681799 2.2998085
-1.1107136 -0.70455748 2.3002703
-1.049179 -0.70498759 2.3016737
-0.95057917 -0.70567638 2.3039224
-0.84590828 -0.70475703 2.306309
-0.75048739 -0.70316368 2.3084841
-0.64948314 -0.70361549 2.3107884
-0.55010051 -0.70430589 2.313055
-0.45052275 -0.70499748 2.3153262
-0.35823819 -0.7043854 2.317431
-0.24410859 -0.70266807 2.3200326
-0.15061231 -0.70289582 2.3221648
-0.050248101 -0.70358872 2.3244543
0.041679475 -0.70336008 2.326551
0.15107508 -0.70288038 2.3290451
0.2499292 -0.70356071 2.3313
0.35712847 -0.70282078 2.333744
0.44301116 -0.70229954 2.3357027
0.54976237 -0.70141119 2.3381364
0.64939159 -0.70209295 2.3404088
0.74921316 -0.70277601 2.3426857
0.842839 -0.70341665 2.3448212
0.97932231 -0.7001195 2.3479321
1.0498489 -0.70059913 2.3495407
1.1504515 -0.7012834 2.3518355
1.2491049 -0.70195436 2.3540854
1.3070905 -0.70234877 2.3554084
-1.1100165 -0.65274799 2.3002563
-1.0491649 -0.65106797 2.3016434
-0.95028287 -0.65134829 2.3038983
-0.85014129 -0.64879519 2.3061802
-0.74866128 -0.64884692 2.3084948
-0.64947414 -0.64948308 2.3107576
-0.55009335 -0.65012002 2.3130236
-0.45051703 -0.65075833 2.3152962
-0.35074446 -0.65139806 2.3175719
-0.25101638 -0.65039247 2.319845
-0.15061039 -0.64849669 2.3221345
-0.050247397 -0.64913589 2.3244233
0.050313469 -0.64977664 2.3267167
0.15107322 -0.65041858 2.3290143
0.24992603 -0.65104789 2.3312705
0.34843603 -0.65055847 2.3335161
0.45032215 -0.6502198 2.3358393
0.54975522 -0.64874464 2.3381059
0.64938259 -0.6493749 2.3403788
0.74920374 -0.65000689 2.3426557
0.84921992 -0.65063983 2.3449366
0.94893438 -0.65046424 2.3472099
1.0498359 -0.64979255 2.3495114
1.1504368 -0.65042722 2.3518071
1.24949 -0.64946675 2.354064
1.3285713 -0.64942819 2.3558681
-1.1086223 -0.55120337 2.3002307
-1.0491395 -0.55152822 2.3015878
-0.95060205 -0.54990709 2.3038335
-0.84969294 -0.54846299 2.3061333
-0.7486431 -0.54901105 2.308439
-0.64945847 -0.54954916 2.3107007
-0.55007988 -0.55008805 2.3129675
-0.45050573 -0.55062836 2.3152378
-0.35073602 -0.55116946 2.3175142
-0.25099897 -0.55145878 2.3197894
-0.15008628 -0.54927206 2.3220894
-0.05024619 -0.5486111 2.3243656
0.050312258 -0.54915255 2.3266592
0.15106937 -0.54969478 2.3289583
0.24991973 -0.55022699 2.3312123
0.34896314 -0.55076015 2.3334713
0.45031166 -0.55130607 2.3357828
0.54974192 -0.54973429 2.3380497
0.64936787 -0.55026889 2.3403213
0.74947995 -0.54904926 2.3426049
0.84919858 -0.54922771 2.3448792
0.94940603 -0.54976296 2.3471637
1.0498103 -0.55029964 2.3494544
1.1504091 -0.55083698 2.3517482
1.248649 -0.54981166 2.3539886
1.3285395 -0.54966629 2.3558104
-1.1072431 -0.45412734 2.3002067
-1.0488974 -0.45017073 2.3015351
-0.95074302 -0.44855163 2.3037724
-0.8496713 -0.44873148 2.3060777
-0.74862456 -0.44917998 2.3083813
-0.64944285 -0.4496201 2.3106451
-0.55006635 -0.4500612 2.3129106
-0.45049462 -0.45050287 2.3151817
-0.35072723 -0.45094585 2.3174582
-0.25076362 -0.45138967 2.3197372
-0.15111971 -0.45098138 2.3220093
-0.049766537 -0.4494693 2.3243206
0.050311025 -0.44853342 2.326602
0.15106565 -0.44897646 2.3289008
0.24991368 -0.44941097 2.3311551
0.34895447 -0.44984648 2.3334141
0.45030028 -0.45029217 2.3357251
0.54972881 -0.45072925 2.3379929
0.64935094 -0.45116743 2.3402655
0.74886388 -0.44987425 2.3425336
0.84917855 -0.44993338 2.3448217
0.94938278 -0.45037192 2.3471074
1.0503249 -0.4496446 2.3494089
1.1503806 -0.44913283 2.3516908
1.2490278 -0.44956264 2.3539402
1.3285069 -0.44990885 2.3557529
-1.1063931 -0.3511636 2.3001671
-1.0493104 -0.34858429 2.3014691
-0.95049626 -0.34865648 2.3037207
-0.84965116 -0.34900457 2.3060217
-0.74860644 -0.34935364 2.3083258
-0.64942712 -0.34969598 2.3105876
-0.55005318 -0.35003951 2.3128545
-0.4504838 -0.35038272 2.3151255
-0.35071883 -0.35072723 2.3173997
-0.25075755 -0.35107228 2.3196805
-0.15059949 -0.35141808 2.3219652
-0.050715439 -0.35108393 2.3242428
0.050309796 -0.35001549 2.3265464
0.15159853 -0.34929198 2.3288555
0.2499074 -0.34860018 2.3310976
0.34894598 -0.34893787 2.3333561
0.45028883 -0.34928358 2.3356676
0.54971498 -0.34962231 2.3379347
0.64933616 -0.34996241 2.3402066
0.74914855 -0.35030285 2.342483
0.84915787 -0.35064352 2.3447654
0.94936007 -0.35098553 2.3470502
1.0492164 -0.35020199 2.3493273
1.150353 -0.3495526 2.351635
1.2489971 -0.34988683 2.3538833
1.3284739 -0.35015625 2.3556952
-1.1044415 -0.24865501 2.300154
-1.0488687 -0.24745493 2.3055544
-0.95047611 -0.24966981 2.3090799
-0.84973782 -0.25000954 2.3107371
-0.7487644 -0.25001481 2.3128111
-0.64951956 -0.25029117 2.3145685
-0.55012316 -0.25042224 2.3164077
-0.45039478 -0.25055176 2.3183115
-0.35060164 -0.25090641 2.320004
-0.25073531 -0.25103647 2.3218305
-0.15054195 -0.25117251 2.323806
-0.050192475 -0.25147676 2.3257852
0.050338283 -0.25162545 2.3279035
0.15050799 -0.25090656 2.329926
0.24991363 -0.24989581 2.3320591
0.3494862 -0.24878107 2.3360655
0.44990176 -0.24912028 2.33746
0.54986298 -0.24869721 2.3378813
0.64931881 -0.24876231 2.3401489
0.74913037 -0.24900427 2.3424258
0.84913677 -0.24924666 2.3447065
0.94933653 -0.24948974 2.3469925
1.0497334 -0.24973311 2.3492806
1.1503247 -0.24997702 2.3515737
1.2489662 -0.2502161 2.3538268
1.3284414 -0.2504088 2.3556385
-1.1037548 -0.15386924 2.3001158
-1.0580987 -0.14961039 2.3215277
0.47491097 -0.15115963 2.3430502
0.54952079 -0.14972018 2.337816
0.64930457 -0.14967541 2.3400919
0.74911225 -0.14982103 2.3423686
0.84911579 -0.14996698 2.3446496
0.94931298 -0.15011312 2.3469341
1.0497079 -0.15025954 2.3492234
1.1502967 -0.1504062 2.3515189
1.2489363 -0.15055016 2.3537683
1.3284094 -0.15066607 2.3555801
-1.1023382 -0.04972975 2.3000886
-1.0582424 -0.049848828 2.3216126
0.47489604 -0.050330047 2.342485
0.54967505 -0.050544314 2.337764
0.64928728 -0.050593406 2.3400354
0.74909401 -0.050642658 2.3423116
0.84909534 -0.050691988 2.3445921
0.94928998 -0.050741352 2.3468776
1.0496817 -0.050790861 2.3491666
1.1502678 -0.050840434 2.3514614
1.2489057 -0.050889097 2.3537114
1.3283765 -0.050928276 2.3555226
-1.1010835 0.042269699 2.300065
-1.0583612 0.049856432 2.321882
0.47482517 0.050319873 2.3421216
0.5496611 0.050542638 2.3377063
0.64927268 0.050591748 2.3399773
0.74907529 0.05064097 2.3422544
0.84907418 0.050690293 2.3445337
0.94926673 0.050739683 2.3468199
1.0496545 0.050789185 2.3491082
1.1502397 0.050838787 2.351402
1.2488748 0.050887424 2.3536518
1.3283437 0.050926585 2.3554642
-1.1002361 0.14504038 2.3000257
-1.058509 0.14948718 2.3221943
0.47469544 0.15108676 2.3419454
0.54934597 0.14989749 2.3376422
0.64925563 0.14966412 2.3399205
0.74905723 0.14980976 2.3421955
0.84905374 0.1499555 2.3444772
0.94924366 0.15010166 2.3467627
1.049631 0.15024824 2.3490522
1.1502115 0.15039468 2.3513446
1.2488446 0.15053868 2.3535955
1.3283113 0.15065461 2.3554068
-1.0587515 0.24876094 2.3217018
0.47375143 0.25120658 2.3438554
0.54992801 0.24884421 2.3375993
0.64924085 0.24873151 2.339864
0.74903888 0.2489734 2.3421402
0.84903306 0.24921592 2.3444214
0.94922054 0.2494588 2.346705
1.0496039 0.24970214 2.348994
1.1501839 0.24994601 2.3512883
1.248814 0.25018516 2.3535366
1.3282789 0.25037757 2.3553491
-1.0589116 0.34889475 2.319535
0.47326857 0.34949079 2.3451579
0.54962116 0.3495622 2.3375344
0.64922416 0.349902 2.3398066
0.74902016 0.35024217 2.3420818
0.84901178 0.3505834 2.3443623
0.94919688 0.35092491 2.3466475
1.0490978 0.35058001 2.3489261
1.1501559 0.34949228 2.3512292
1.2487836 0.34982669 2.3534808
1.3282461 0.3500959 2.3552916
-1.0576848 0.45049131 2.3204281
0.47313377 0.45035928 2.3446901
0.54960722 0.45062956 2.3374774
0.64920932 0.45106733 2.3397484
0.74848938 0.45033324 2.3420129
0.84899074 0.44983387 2.3443055
0.94917357 0.45027223 2.34659
1.0500426 0.44998789 2.348891
1.1501274 0.44903359 2.3511734
1.2487532 0.44946319 2.3534207
1.3282138 0.44980949 2.3552341
-1.0566671 0.5504148 2.3215246
0.47314954 0.55104887 2.3441162
0.54915184 0.55024374 2.3374104
0.64919233 0.55012023 2.3396914
0.74967873 0.54961169 2.3419833
0.84914094 0.5489186 2.3442528
0.9491505 0.54961509 2.3465333
1.0495268 0.55015087 2.3488216
1.1500984 0.55068809 2.3511143
1.2482071 0.55031228 2.353353
1.3281816 0.54951775 2.3551769
-1.0562115 0.65002435 2.3222623
0.47280788 0.65003049 2.3441041
0.55001551 0.64916277 2.3373742
0.64917654 0.64916825 2.3396349
0.75109166 0.64981318 2.3419595
0.85107839 0.65044552 2.3442395
0.94912696 0.65106606 2.3464754
1.0495026 0.6495859 2.3487659
1.1500708 0.65021986 2.3510582
1.2492087 0.64990103 2.3533187
1.3281492 0.64922142 2.3551192
-1.049111 0.7561698 2.325341
-0.9500609 0.79189384 2.3379421
-0.85112077 0.79233563 2.338974
-0.75107753 0.79197294 2.3440666
-0.650069 0.79234272 2.3453033
-0.55010909 0.79275209 2.3467481
-0.4502829 0.79317397 2.3477516
-0.35034537 0.79357827 2.3492424
-0.25164166 0.7934919 2.3527713
-0.15038416 0.79358494 2.355489
-0.05175028 0.79397947 2.3538675
0.049950618 0.79446042 2.3514805
0.14990111 0.7949059 2.3530991
0.24803478 0.79506558 2.3558037
0.34965661 0.7949633 2.3593554
0.46439537 0.75760275 2.3464487
0.5495674 0.74959159 2.3373058
0.64916068 0.75031799 2.339577
0.75107276 0.75106442 2.3419008
0.85096931 0.7497797 2.3441794
0.94910401 0.75039881 2.3464167
1.0494751 0.74901485 2.3487062
1.150043 0.74974722 2.3510001
1.2486609 0.75046372 2.3532493
1.327962 0.75074732 2.355058
-1.041712 0.84926695 2.3009593
-0.95021749 0.85063833 2.3030453
-0.85146153 0.85146987 2.3052971
-0.75085717 0.84900814 2.3075924
-0.64923632 0.84901178 2.3099105
-0.54989147 0.84984434 2.3121753
-0.45035136 0.85067838 2.3144453
-0.35061553 0.8515147 2.3167193
-0.25029922 0.8489449 2.3190081
-0.15055525 0.84900963 2.3212836
-0.050228961 0.84984642 2.3235705
0.05029507 0.85068458 2.3258626
0.15066798 0.85109931 2.3281507
0.25030437 0.84950298 2.3304248
0.34884363 0.84897256 2.3326714
0.45015723 0.84981304 2.3349824
0.54955357 0.85063785 2.3372483
0.64862049 0.85060382 2.3395071
0.75105423 0.85020083 2.3418438
0.8511219 0.849006 2.3441265
0.94908065 0.84972668 2.3463607
1.0494506 0.85055566 2.348649
1.1495131 0.85011411 2.3509307
1.2486304 0.85008085 2.3531921
1.3282436 0.85042244 2.3550076
-1.0405511 0.94727969 2.3009307
-0.95019454 0.94812787 2.3029895
-0.85144269 0.94905454 2.3052425
-0.74992859 0.94865692 2.3075576
-0.64922047 0.94887269 2.3098536
-0.54987788 0.94980282 2.312119
-0.45034027 0.95073497 2.3143878
-0.35089785 0.9513312 2.3166561
-0.25059447 0.94851255 2.3189454
-0.15055136 0.9493618 2.3212252
-0.050227761 0.95029747 2.3235133
0.050293792 0.9512347 2.3258052
0.15120578 0.94980848 2.3281078
0.24982828 0.9488979 2.3303573
0.34883481 0.94981712 2.3326149
0.45014593 0.95075786 2.3349237
0.54904455 0.95041585 2.3371799
0.64965701 0.94960254 2.3394747
0.75103635 0.94933343 2.3417873
0.85101599 0.950257 2.3440666
0.94865882 0.95062488 2.3462937
1.0494249 0.94997585 2.3485916
1.1504837 0.94959724 2.3508956
1.2486004 0.94969308 2.3531332
1.3280512 0.95042384 2.3549457
-0.30899787 1.0000681 2.3175836
-0.25067452 1.0006419 2.3189135
-0.15054947 1.0016271 2.3211963
-0.050227121 1.0026141 2.3234842
0.050293159 1.003603 2.3257756
0.15302055 1.0026081 2.3281188
0.24982478 1.0034673 2.3303258
0.34883037 1.0044392 2.3325832
0.45013988 1.0054338 2.3348935
0.55397779 1.0049795 2.337261
0.64912039 1.0052806 2.339431
0.75102574 1.0062791 2.3417547
0.85100389 1.0072584 2.344034
0.95194602 1.0075709 2.3463359
1.0494101 1.0070872 2.3485589
1.1499704 1.0080705 2.350852
1.2485819 1.0090346 2.3531001
1.3280319 1.009811 2.3549116
-1.0333196 -0.20712045 2.4380801
-0.94941163 -0.20926428 2.4451914
-0.84904593 -0.20895928 2.4416273
-0.74897462 -0.20865513 2.4380736
-0.64919209 -0.20835191 2.4345305
-0.54970121 -0.20804951 2.4309978
-0.45049667 -0.20774807 2.4274743
-0.35158125 -0.20744744 2.4239621
-0.24708028 -0.20712705 2.4243791
-0.15072055 -0.20681979 2.442034
-0.050548486 -0.20651516 2.4390137
0.05044847 -0.20620854 2.4353924
0.15003122 -0.20590661 2.4312503
0.24934311 -0.20560484 2.4282629
0.34276396 -0.20531069 2.4399056
0.43622288 -0.20432678 2.4450626
-1.0436224 -0.15053013 2.4285696
0.4565798 -0.14981721 2.4367828
-1.0439355 -0.051507417 2.4289289
0.45631129 -0.049922373 2.4350889
-1.0441566 0.050245628 2.4248741
0.45602831 0.050426312 2.4339662
-1.0444778 0.15023567 2.425451
0.45562461 0.15300514 2.4378271
-1.0447733 0.25193253 2.4246979
0.4551439 0.24717835 2.446173
-1.0450082 0.34950352 2.421818
0.45473781 0.349875 2.450119
-1.0453318 0.45043245 2.4223938
0.45445284 0.45003498 2.4491115
-1.0456568 0.55055779 2.4231427
0.45418549 0.55064553 2.4472766
-1.0459849 0.65030074 2.4240816
0.4539066 0.65055716 2.4460382
-1.0395637 0.75869995 2.4245594
-0.95016712 0.79072154 2.4247835
-0.85056466 0.79102659 2.4256461
-0.75089312 0.79133159 2.4262168
-0.65058774 0.79163933 2.4275975
-0.54803151 0.79195476 2.4306426
-0.45033473 0.79225707 2.4361618
-0.35039204 0.79256344 2.4369829
-0.25037754 0.7928701 2.4381649
-0.15028028 0.79317659 2.4389889
-0.047822084 0.79348856 2.4366169
0.050079469 0.79378629 2.4340582
0.1498986 0.7940923 2.4350486
0.24981035 0.79439843 2.4359355
0.34978783 0.79470503 2.4370258
0.44120717 0.76950926 2.4411566
