# .PCD v0.7 - Point Cloud Data file format
VERSION 0.7
FIELDS x y z
SIZE 4 4 4
TYPE F F F
COUNT 1 1 1
WIDTH 389
HEIGHT 1
VIEWPOINT 0 0 0 1 0 0 0
POINTS 389
DATA ascii
-1.3139575 -0.54592645 2.3041954
-1.250396 -0.54627353 2.30566
-1.1503431 -0.54576099 2.3079648
-1.048949 -0.54529148 2.3102992
-0.94998473 -0.54582989 2.3125801
-0.85082573 -0.54636937 2.3148668
-0.75147039 -0.54691005 2.3171575
-0.65126604 -0.54606956 2.3194642
-0.54872614 -0.54487205 2.3218243
-0.44805083 -0.54437178 2.3241436
-0.34998611 -0.54490107 2.3264046
-0.25204852 -0.54509324 2.3286612
-0.15118416 -0.54387307 2.3309822
-0.050439354 -0.54441512 2.3333049
0.05050642 -0.54495847 2.3356323
0.14954366 -0.54549098 2.3379149
0.2481629 -0.54507983 2.3401871
0.35077789 -0.54285938 2.342546
0.44994321 -0.54287994 2.3448315
0.54976416 -0.5434128 2.3471322
0.64978004 -0.54394692 2.3494382
0.74947131 -0.54299855 2.3517337
0.85040265 -0.54289573 2.3540597
0.94886768 -0.54341924 2.3563287
1.0496712 -0.54395521 2.3586531
1.1508669 -0.54429966 2.3609853
1.2494342 -0.54104692 2.3632507
1.3316722 -0.5411911 2.3651452
-1.3138483 -0.4483282 2.3040035
-1.2502916 -0.44861338 2.3054681
-1.1496781 -0.44906458 2.3077877
-1.0488631 -0.44951689 2.3101101
-0.9499076 -0.4499605 2.3123922
-0.85075635 -0.45040539 2.3146772
-0.75140917 -0.45085084 2.3169675
-0.65186459 -0.45129749 2.3192618
-0.55048448 -0.45118392 2.3215981
-0.44777808 -0.44984642 2.3239622
-0.34995732 -0.44845891 2.3262131
-0.25170827 -0.44889539 2.3284779
-0.15117201 -0.44934213 2.3307953
-0.050435293 -0.44978988 2.3331172
0.050502338 -0.45023859 2.3354445
0.1495316 -0.45067844 2.3377264
0.2487561 -0.45111936 2.340014
0.34988147 -0.45000243 2.3423421
0.44990763 -0.44990024 2.344645
0.54972035 -0.45034155 2.3469472
0.65024173 -0.44984338 2.3492627
0.74993348 -0.44910812 2.351558
0.85033476 -0.44955003 2.3538725
0.94879192 -0.4499836 2.3561418
1.049587 -0.45042738 2.3584652
1.1504148 -0.45069307 2.3607891
1.2496154 -0.44917837 2.3630724
1.3315687 -0.44953716 2.3649604
-1.3137366 -0.34867036 2.3038075
-1.2501863 -0.34889185 2.3052733
-1.1495807 -0.34924278 2.3075919
-1.0487736 -0.34959459 2.3099141
-0.94982636 -0.3499395 2.3121953
-0.85068381 -0.35028577 2.3144808
-0.75134468 -0.35063198 2.3167696
-0.65180898 -0.3509798 2.3190641
-0.54999578 -0.35133442 2.3214109
-0.44820651 -0.35143724 2.3237565
-0.34992784 -0.34993622 2.3260181
-0.25128216 -0.34973624 2.3282905
-0.15115897 -0.34852543 2.330595
-0.050430909 -0.34887251 2.3329172
0.050497957 -0.34922034 2.3352418
0.14951882 -0.3495613 2.3375244
0.24873471 -0.34990361 2.3398113
0.35026133 -0.35025352 2.3421524
0.44986928 -0.35059735 2.3444483
0.54967386 -0.35094094 2.3467493
0.64916217 -0.35038549 2.3490403
0.7498697 -0.34951207 2.3513579
0.85026234 -0.34985587 2.3536723
0.9487114 -0.35019326 2.3559422
1.0494984 -0.35053864 2.3582644
1.1504818 -0.35088462 2.3605921
1.2496738 -0.34927335 2.3628743
1.3314551 -0.349374 2.3647592
-1.3136255 -0.24902925 2.3036125
-1.2500798 -0.24918768 2.3050766
-1.1494826 -0.24943823 2.3073947
-1.0486848 -0.24968937 2.3097186
-0.9497456 -0.24993576 2.3119977
-0.85061145 -0.25018281 2.3142827
-0.75128055 -0.25043029 2.316572
-0.65175307 -0.25067824 2.3188658
-0.55003196 -0.25101221 2.3212109
-0.44948795 -0.25154129 2.3235283
-0.35139519 -0.2509886 2.3257875
-0.25206244 -0.25116608 2.3280766
-0.15114616 -0.24982566 2.330399
-0.050426703 -0.25007454 2.3327198
0.050493717 -0.25032383 2.3350468
0.14999525 -0.24926648 2.337337
0.24871318 -0.24870546 2.3396101
0.35023105 -0.2489543 2.3419499
0.4498308 -0.24919823 2.3442459
0.54962653 -0.24944268 2.3465452
0.64961714 -0.24968772 2.3488505
0.74980605 -0.24993324 2.3511589
0.85019028 -0.25017908 2.3534725
0.94863105 -0.25042024 2.3557417
1.0494089 -0.25066718 2.3580639
1.1503832 -0.25091466 2.3603907
1.2492318 -0.24922019 2.3626645
1.3313421 -0.24922737 2.3645573
-1.313514 -0.14940521 2.303416
-1.2499731 -0.1495001 2.3048811
-1.1493851 -0.14965054 2.307199
-1.0485947 -0.14980118 2.3095217
-0.94966441 -0.14994906 2.3118007
-0.85053921 -0.15009725 2.3140852
-0.75121665 -0.15024579 2.3163743
-0.65169781 -0.15039442 2.3186679
-0.55198193 -0.15054348 2.3209667
-0.45206821 -0.15069282 2.3232691
-0.35195577 -0.15084237 2.3255751
-0.25164449 -0.15099242 2.3278875
-0.15113372 -0.15114258 2.3302028
-0.050422437 -0.15129317 2.3325238
0.050489482 -0.15144402 2.3348496
0.14899954 -0.15033068 2.337117
0.2486923 -0.14963247 2.3394122
0.35020152 -0.14978209 2.3417525
0.44979233 -0.14992884 2.344048
0.54958004 -0.15007599 2.3463466
0.64956206 -0.15022333 2.3486512
0.74974221 -0.15037104 2.3509598
0.8501184 -0.15051897 2.3532727
0.95033306 -0.1503721 2.3555815
1.0510789 -0.15111789 2.3579049
1.1502867 -0.15096134 2.3601902
1.2496994 -0.14951725 2.3624783
1.3312285 -0.14909802 2.3643558
-1.3134024 -0.049797982 2.3032215
-1.2498674 -0.049829636 2.3046846
-1.1512537 -0.04996166 2.3069582
-1.048358 -0.049710814 2.3227081
-0.94986391 -0.094511546 2.3307846
-0.85015053 -0.094480909 2.329886
-0.75051212 -0.09445101 2.3290062
-0.6509462 -0.094421819 2.3281446
-0.55145019 -0.094393328 2.3273005
-0.45131105 -0.094308265 2.3265181
-0.35133296 -0.094347797 2.3259077
-0.25163233 -0.094365269 2.327775
-0.15112633 -0.094459161 2.3300905
-0.050420027 -0.09455324 2.3324118
0.053253215 -0.094183125 2.3396854
0.14931361 -0.093162611 2.3513122
0.24884629 -0.093159549 2.3510616
0.34995595 -0.093214408 2.3505733
0.47112751 -0.06272696 2.3520553
0.54953349 -0.050726101 2.3461487
0.64950699 -0.050775934 2.3484528
0.74967861 -0.050825857 2.3507595
0.85004634 -0.050875828 2.3530738
0.95061249 -0.050925929 2.3553908
1.0513757 -0.050976161 2.357712
1.1501878 -0.051025383 2.3599899
1.2487792 -0.049518898 2.3622584
1.3311146 -0.048985589 2.3641539
-1.3132907 0.049792346 2.3030262
-1.2497613 0.049824007 2.3044901
-1.1512449 0.049873069 2.3067603
-1.048613 0.049947992 2.3233762
0.48543543 0.050271098 2.352653
0.54948604 0.05072026 2.3459463
0.64945078 0.05077007 2.3482492
0.74961376 0.050819963 2.3505576
0.84997255 0.050869957 2.3528693
0.95052981 0.050920062 2.3551855
1.0512843 0.05097023 2.3575075
1.1500881 0.051019471 2.3597839
1.2485651 0.049887922 2.3620558
1.3310038 0.048980139 2.3639565
-1.3131796 0.14936574 2.3028302
-1.249655 0.14946075 2.3042936
-1.1511474 0.14960796 2.3065636
-1.0486917 0.14976934 2.3235126
0.48514435 0.14983691 2.3524902
0.54943919 0.15003619 2.345747
0.64939594 0.15018351 2.3480496
0.74955022 0.15033115 2.350358
0.84990042 0.15047908 2.35267
0.95044941 0.15062718 2.3549867
1.0511945 0.15077561 2.3573067
1.1499904 0.15092123 2.3595836
1.2494947 0.14984289 2.3618782
1.3308904 0.14905867 2.3637552
-1.3130682 0.24892235 2.3026352
-1.2495496 0.24908045 2.3040991
-1.1510495 0.24932581 2.3063676
-1.0492226 0.24931356 2.3219666
0.48435816 0.25025037 2.3566504
0.549393 0.24933529 2.3455477
0.64934099 0.24958028 2.3478518
0.74948698 0.24982531 2.3501594
0.84982848 0.25007105 2.3524699
0.95036864 0.25031728 2.3547862
1.0511055 0.25056395 2.3571069
1.1498923 0.25080588 2.3593824
1.2483715 0.250236 2.3616521
1.3307769 0.24912016 2.3635535
-1.3129568 0.3484621 2.3024402
-1.2494429 0.34868339 2.3039033
-1.1509509 0.34902644 2.3061724
-1.0496515 0.34963194 2.3210118
0.48412165 0.35032931 2.3569009
0.54934573 0.35072988 2.345346
0.6492852 0.35107422 2.3476481
0.74901009 0.34984732 2.3499489
0.84975541 0.3496466 2.3522699
0.95028764 0.3499901 2.3545871
1.0510166 0.35033566 2.3569064
1.1497941 0.35067344 2.3591814
1.2492695 0.35015994 2.361475
1.3306634 0.34916452 2.3633525
-1.3128431 0.4500578 2.3022401
-1.2497166 0.44880188 2.3036973
-1.1508536 0.44871071 2.3059762
-1.0496385 0.44948775 2.3211262
0.48386282 0.45000264 2.3565094
0.549299 0.44999522 2.3451476
0.64922982 0.45043671 2.3474503
0.74976337 0.44927722 2.3497679
0.84968424 0.44920456 2.3520715
0.95020705 0.44964683 2.3543859
1.0509275 0.45008981 2.3567061
1.1496967 0.45052436 2.3589807
1.2483034 0.45051074 2.3612535
1.3305501 0.44919181 2.3631511
-1.3127296 0.55163622 2.3020413
-1.2488558 0.55041736 2.3035157
-1.1508381 0.5484674 2.305778
-1.049758 0.54927754 2.3210897
0.48390183 0.54934257 2.355423
0.54925251 0.54924357 2.3449495
0.64917493 0.54978263 2.3472502
0.74929482 0.55032277 2.3495569
0.84960997 0.5508638 2.3518672
0.94971138 0.54983091 2.3541763
1.0508376 0.54982728 2.3565059
1.1495994 0.550358 2.3587806
1.2489142 0.55041397 2.3610682
1.3304366 0.54920226 2.3629494
-1.3126183 0.65112484 2.3018463
-1.2491207 0.65153825 2.3033085
-1.1510468 0.64942533 2.3055725
-1.0497595 0.64900565 2.3213143
0.48370636 0.64997602 2.3549018
0.54920524 0.65058631 2.3447459
0.64872128 0.65068763 2.3470404
0.74923128 0.64974904 2.3493578
0.84953839 0.65038794 2.3516672
0.95045102 0.64942437 2.3539953
1.0507481 0.64954799 2.3563061
1.1495018 0.65017444 2.3585801
1.2483584 0.65071368 2.3608563
1.3303231 0.64919555 2.3627479
-1.3125068 0.75059593 2.3016512
-1.2490144 0.75107265 2.303113
-1.1500831 0.75101835 2.3053925
-1.0499814 0.74889344 2.3212671
0.48346394 0.75055236 2.3544757
0.54915887 0.74980062 2.3445489
0.64946997 0.74997014 2.3468592
0.74916786 0.74915868 2.3491585
0.84946626 0.74989492 2.3514686
0.94996369 0.75063294 2.3537819
1.0502104 0.7499122 2.3560941
1.1494037 0.74997407 2.3583794
1.2490053 0.75101304 2.3606725
1.3307222 0.74852663 2.3625598
-1.3123955 0.85005063 2.3014553
-1.2489083 0.85059041 2.3029184
-1.1504587 0.85142779 2.3051844
-1.0501707 0.84946376 2.3213577
0.483484 0.84998447 2.3537967
0.54911226 0.84899831 2.3443499
0.64900905 0.84983122 2.3466501
0.74910277 0.85066593 2.3489554
0.84894782 0.85004503 2.3512568
0.94988251 0.85022169 2.3535824
1.0510095 0.84956801 2.3559141
1.1493055 0.84975731 2.3581791
1.2503866 0.85059619 2.3605056
1.332092 0.84946227 2.3623908
-1.313102 0.94562566 2.3012495
-1.2497153 0.94848907 2.3027043
-1.1503628 0.94895184 2.3049934
-1.0465014 0.94546223 2.3119028
-0.94931275 0.94131911 2.3215077
-0.85011071 0.94176799 2.3237755
-0.75045627 0.94268239 2.3254168
-0.65098923 0.94342738 2.3273056
-0.55114233 0.94223869 2.3296556
-0.45121232 0.94310933 2.3314693
-0.35119271 0.94385177 2.3334725
-0.25115693 0.94582355 2.3332555
-0.15103173 0.94503528 2.3353474
-0.050297953 0.94550365 2.3373137
0.050355133 0.94631368 2.3393023
0.15109682 0.94718099 2.3413684
0.24999456 0.94631952 2.3436713
0.3499594 0.94677705 2.345499
0.44904563 0.94721198 2.3467443
0.5490647 0.95028943 2.3441477
0.6485157 0.95059341 2.3464391
0.74903959 0.95004183 2.3487566
0.84976029 0.94948822 2.3510785
0.94980174 0.94979262 2.3533831
1.0504785 0.95072848 2.3557005
1.1492077 0.94952303 2.3579779
1.2502793 0.95046037 2.3603048
1.3322935 0.94938725 2.3621972
-0.60335845 1.00003 2.3174956
-0.55144083 1.0005459 2.3186908
-0.45162448 1.0015374 2.3209887
-0.35161009 1.0025311 2.3232915
-0.2513971 1.0035266 2.3255985
-0.14717866 1.0026568 2.3280015
-0.050372895 1.0034263 2.330231
0.05043976 1.0044258 2.3325517
0.15145345 1.005427 2.334877
0.25498977 1.0049808 2.3372641
0.34985721 1.0052885 2.3394492
0.44934952 1.0062723 2.3417394
0.54903829 1.0072583 2.344034
0.65445387 1.0074563 2.3464627
0.7511338 1.0071439 2.3486912
0.84927899 1.0081127 2.35095
0.949754 1.0091046 2.3532639
1.0504252 1.0100985 2.3555813
1.1491499 1.0089508 2.3578582
1.2502154 1.0099462 2.3601844
1.3320683 1.0107528 2.3620696
-1.0225042 -0.045979369 2.4305604
-0.73451036 -0.090980165 2.4632261
-0.65068507 -0.090738222 2.4566753
-0.55156285 -0.09045212 2.4489293
-0.4508346 -0.090161383 2.4410582
-0.35074711 -0.089872509 2.4332368
-0.25130364 -0.089585483 2.4254661
-0.15030232 -0.089293957 2.4175727
-0.049956173 -0.089004278 2.40973
0.036785759 -0.088753857 2.4029496
0.38370895 -0.087513156 2.490865
0.47166741 -0.050324444 2.4497364
-1.0228192 0.050379056 2.4313095
0.4773477 0.05015742 2.4418104
-1.0231396 0.15030281 2.4317932
0.47706777 0.14993103 2.4405804
-1.0233902 0.2517162 2.4290698
0.47660536 0.24843764 2.4474158
-1.0236672 0.34961268 2.4279783
0.47628301 0.35004541 2.4477801
-1.0239928 0.44964367 2.428678
0.4760116 0.45010281 2.4461331
-1.0243222 0.54973662 2.4295309
0.47572625 0.55061138 2.4450414
-1.0246361 0.64892495 2.4298437
0.47546068 0.65044814 2.4431756
-1.0248499 0.74995548 2.4255645
0.47517514 0.75016361 2.4422085
-1.025183 0.85030729 2.4265349
0.47469836 0.85118556 2.449373
-1.0153641 0.90732366 2.429493
-0.95076782 0.90829706 2.4293246
-0.85122824 0.90860188 2.4302523
-0.75034279 0.90891165 2.4312806
-0.65025163 0.9092176 2.4318929
-0.54795623 0.9095397 2.4370666
-0.44979393 0.90984356 2.4394455
-0.34991214 0.91014981 2.4403975
-0.24948946 0.91044557 2.4354961
-0.15016745 0.91074926 2.43609
-0.050183218 0.91105527 2.4369075
0.050205786 0.91136295 2.4377298
0.15032472 0.91166925 2.4385517
0.25175056 0.91198486 2.4416902
0.35010251 0.91229326 2.4461794
0.44099513 0.91192394 2.4469283
