# .PCD v0.7 - Point Cloud Data file format
VERSION 0.7
FIELDS x y z
SIZE 4 4 4
TYPE F F F
COUNT 1 1 1
WIDTH 526
HEIGHT 1
VIEWPOINT 0 0 0 1 0 0 0
POINTS 526
DATA ascii
-1.3093054 -0.90929735 2.2888045
-1.2523794 -0.90929824 2.2900939
-1.1502744 -0.90866172 2.2924027
-1.0501239 -0.9095633 2.294677
-0.94823235 -0.90892446 2.2969811
-0.85638064 -0.90705359 2.2990506
-1.3090997 -0.84937108 2.288444
-1.2500381 -0.84986848 2.2897851
-1.1501 -0.85071069 2.2920544
-1.0496291 -0.85111135 2.2943325
-0.95012468 -0.8490988 2.2965746
-0.85044658 -0.84801835 2.298826
-0.79511178 -0.81740952 2.2998936
-1.3087593 -0.75022024 2.2878497
-1.2497131 -0.75065964 2.2891891
-1.149644 -0.75123274 2.2914598
-1.0500102 -0.74965757 2.2937069
-0.9493705 -0.74875069 2.2959819
-0.84886402 -0.74949491 2.2982624
-0.78488123 -0.74206787 2.2996664
-1.3084193 -0.6511212 2.2872555
-1.2489704 -0.65088516 2.2886
-1.1496458 -0.64992017 2.2908444
-1.0494056 -0.64865559 2.293107
-0.95064491 -0.64967394 2.2953506
-0.850196 -0.64955717 2.297626
-0.77191359 -0.64637786 2.2993786
-1.3093613 -0.55260175 2.2866352
-1.2508683 -0.54929417 2.2879407
-1.1491888 -0.54881108 2.2902405
-1.0491322 -0.54935533 2.2925091
-0.95092434 -0.54988897 2.2947376
-0.85047185 -0.55043501 2.2970161
-0.75867528 -0.54811424 2.2990818
-1.3097584 -0.44894457 2.285996
-1.2507603 -0.44920737 2.2873342
-1.1504061 -0.45003769 2.2896118
-1.0523304 -0.45536855 2.2918777
-0.95069677 -0.45882019 2.2941895
-0.85026926 -0.45927548 2.2964683
-0.7493484 -0.45827922 2.298764
-0.69419211 -0.43657127 2.2998645
-1.3094182 -0.35000396 2.2854033
-1.2504343 -0.35020891 2.2867396
-1.1506311 -0.35055524 2.2890019
-1.0875505 -0.35082489 2.2907684
-1.3090783 -0.2511147 2.2848089
-1.25011 -0.25126159 2.2861469
-1.1499966 -0.25106704 2.288413
-1.0873603 -0.24966191 2.2903705
-1.3087317 -0.15021838 2.2842033
-1.249779 -0.1503062 2.2855394
-1.1503506 -0.15003838 2.2877905
-1.0871706 -0.14853394 2.289974
-1.308385 -0.049375158 2.2835991
-1.2494477 -0.049404025 2.2849352
-1.1497213 -0.04945286 2.2871933
-1.086985 -0.049503814 2.2895846
-1.3080455 0.049358096 2.2830069
-1.2491231 0.04938693 2.2843413
-1.1494226 0.049435746 2.2865973
-1.0867994 0.049492639 2.2891953
-1.3076993 0.15009527 2.2824025
-1.2497489 0.14965796 2.2837176
-1.1501144 0.15085438 2.2859671
-1.0866925 0.15023354 2.2888229
-1.3073534 0.25077948 2.2817988
-1.2504944 0.25092089 2.2830846
-1.1508485 0.25116876 2.2853415
-1.0865517 0.25094581 2.2886798
-1.3070141 0.34935716 2.2812064
-1.2501695 0.34955379 2.2824919
-1.1505499 0.34989935 2.2847478
-1.0864208 0.35017893 2.2885628
-1.3066688 0.4499355 2.2806036
-1.2498388 0.45018899 2.2818887
-1.1507432 0.44982919 2.2841353
-1.0868086 0.4474155 2.2875717
-1.3063231 0.55046123 2.2800004
-1.2495084 0.55077147 2.281285
-1.1494424 0.55047554 2.2835526
-1.0687222 0.56524795 2.2858121
-0.95088178 0.59137177 2.2878034
-0.84997398 0.59003609 2.290097
-0.74962556 0.59062082 2.2923663
-0.64907902 0.59120661 2.2946408
-0.55039042 0.59178174 2.2968726
-0.45664179 0.59242415 2.2989924
-1.3074942 0.64634442 2.2793913
-1.2508028 0.64956623 2.2806547
-1.1496421 0.64988989 2.2829435
-1.0499046 0.65053201 2.2852008
-0.94981337 0.65100557 2.2874651
-0.84983969 0.64976048 2.2897367
-0.74996048 0.64975965 2.2919998
-0.64898092 0.6489864 2.2942917
-0.55030668 0.64961767 2.2965224
-0.45200914 0.65075123 2.2987423
-0.39561582 0.6770612 2.2998602
-1.3076663 0.74928856 2.2787623
-1.2508821 0.74971104 2.2800453
-1.1495545 0.75022644 2.282337
-1.0496324 0.74915302 2.2846081
-0.9497214 0.74989259 2.2868662
-0.8496151 0.75063592 2.28913
-0.74885106 0.75070608 2.2914116
-0.64880759 0.75006109 2.2936816
-0.55031931 0.74890393 2.2959197
-0.45132291 0.74945569 2.2981586
-0.38490099 0.75679433 2.2996178
-1.3073208 0.8496539 2.2781599
-1.2505518 0.85013217 2.2794421
-1.1488121 0.85073495 2.2817423
-1.0493542 0.8497752 2.2840002
-0.94998378 0.84972697 2.286253
-0.84939396 0.84940004 2.2885332
-0.75089729 0.85000175 2.2907619
-0.65043932 0.85128617 2.2930286
-0.54986501 0.85001451 2.2953153
-0.45158681 0.84913886 2.2975461
-0.37199208 0.85299206 2.2993257
-1.3070043 0.94177943 2.277607
-1.2502472 0.94230998 2.2788918
-1.1499945 0.94283015 2.2811568
-1.0503714 0.94459033 2.2834029
-0.94864941 0.94420016 2.285708
-0.84918261 0.94400102 2.2879636
-0.75097513 0.94491667 2.2901824
-0.65052462 0.94585305 2.2924523
-0.54987603 0.94679147 2.2947273
-0.45068175 0.94615036 2.2969773
-0.35907122 0.94880331 2.2990365
-0.80724555 -0.90818834 2.3001702
-0.7505247 -0.90810317 2.3014543
-0.64957869 -0.90900773 2.3037467
-0.55016577 -0.90814883 2.3059933
-0.44818148 -0.90677613 2.3082952
-0.34967899 -0.90752149 2.3105307
-0.25347608 -0.90721881 2.3127079
-0.15015078 -0.90721035 2.3150489
-0.047519088 -0.90757972 2.3173752
0.047117833 -0.90629965 2.3195114
0.15060847 -0.90569305 2.321852
0.25125563 -0.9065845 2.3241377
0.34931698 -0.90739119 2.3263636
0.45401371 -0.90518957 2.3287218
0.550161 -0.9050222 2.3308983
0.64947957 -0.90589786 2.3331532
0.74440461 -0.90543085 2.3353007
0.8508153 -0.90556186 2.337712
0.95518023 -0.90500045 2.3400724
1.0459911 -0.90448111 2.3421266
1.1510892 -0.90396863 2.3445041
1.2494338 -0.90482968 2.3467369
1.3265241 -0.90550447 2.3484874
-0.80432791 -0.88452929 2.3000927
-0.7487188 -0.85115373 2.3011498
-0.65075016 -0.8512395 2.3033695
-0.54965913 -0.85113168 2.3056576
-0.44915709 -0.84854543 2.3079193
-0.34962559 -0.84911257 2.3101778
-0.24997473 -0.84994388 2.3124399
-0.15012854 -0.85077685 2.3147063
-0.050433669 -0.85118735 2.3169668
0.050649233 -0.84902859 2.3192437
0.15058602 -0.84909409 2.3215079
0.25121826 -0.84992975 2.3237925
0.3499454 -0.85074943 2.3260334
0.44834244 -0.85071218 2.3282616
0.55048984 -0.84976721 2.3305697
0.64938253 -0.84902334 2.3328056
0.74887985 -0.84984565 2.3350642
0.85069287 -0.85068673 2.3373756
0.95007831 -0.85024351 2.3396244
1.0506554 -0.85022402 2.341903
1.15122 -0.8492918 2.3441746
1.249253 -0.84974283 2.3463984
1.3263324 -0.85037643 2.3481481
-0.73699534 -0.75333387 2.3008208
-0.65137172 -0.75095475 2.3027453
-0.55011213 -0.75153291 2.3050425
-0.44904628 -0.7483778 2.3073139
-0.3495338 -0.7490204 2.3095706
-0.24990913 -0.74975413 2.3118317
-0.15008909 -0.75048852 2.3140979
-0.050073322 -0.75122464 2.3163667
0.049635801 -0.7506718 2.3186228
0.15054643 -0.74851114 2.3208947
0.25115189 -0.74924797 2.3231788
0.34985298 -0.74997002 2.3254187
0.448746 -0.75069404 2.3276629
0.54953879 -0.75092208 2.3299468
0.65061277 -0.74960297 2.3322296
0.75035888 -0.7495212 2.3344879
0.85046685 -0.74941617 2.3367555
0.95032644 -0.75014335 2.3390212
1.0503815 -0.75087088 2.3412917
1.1503209 -0.7498638 2.3435497
1.2489274 -0.75019836 2.3457854
1.3261977 -0.75025499 2.3475361
-0.72377652 -0.65560949 2.300525
-0.65120101 -0.6512115 2.3021431
-0.54985219 -0.65110207 2.3044379
-0.44884601 -0.64834702 2.3067088
-0.34944209 -0.64898115 2.3089645
-0.24984343 -0.6496163 2.3112252
-0.1500496 -0.65025276 2.3134897
-0.050060146 -0.65089011 2.3157582
0.050125644 -0.65152973 2.3180318
0.15086441 -0.64962667 2.3203015
0.25108579 -0.64861906 2.322566
0.34976068 -0.64924419 2.3248048
0.44862753 -0.64987105 2.3270476
0.54979402 -0.65051198 2.3293431
0.65116012 -0.65115434 2.3316431
0.75030303 -0.65005529 2.3338826
0.85033411 -0.65021664 2.336149
0.95007378 -0.64882833 2.3383999
1.0501026 -0.64945769 2.3406694
1.1503229 -0.65008891 2.3429439
1.2500458 -0.65023947 2.3452029
1.3268251 -0.65162605 2.346951
-0.71145666 -0.56341034 2.300245
-0.65103102 -0.55151916 2.3015409
-0.54997921 -0.54998976 2.3038208
-0.44872868 -0.54845798 2.3061044
-0.34935009 -0.54899395 2.3083587
-0.24977779 -0.54953128 2.3106177
-0.15001032 -0.55006945 2.3128808
-0.050046995 -0.55060893 2.3151484
0.050112464 -0.55114913 2.3174202
0.15012018 -0.55126703 2.3196871
0.25142652 -0.54959983 2.3219717
0.34966832 -0.54857177 2.3241906
0.44850889 -0.54910129 2.3264329
0.54964852 -0.54964256 2.3287265
0.65098822 -0.55018502 2.3310256
0.75040966 -0.55071753 2.333281
0.84993935 -0.55116588 2.3355379
0.94982684 -0.54967576 2.3377919
1.0498289 -0.55020916 2.3400598
1.1505325 -0.54952973 2.3423371
1.250407 -0.54916394 2.3445976
1.3274274 -0.54957324 2.3463447
-1.0516371 -0.41431117 2.3498771
-0.95058435 -0.41687876 2.3490727
-0.8503828 -0.41652173 2.3470621
-0.75086731 -0.4183507 2.3499644
-0.64796203 -0.45243421 2.3099329
-0.55029619 -0.45056075 2.3109589
-0.44884345 -0.45007473 2.3128781
-0.34941012 -0.4503901 2.3144331
-0.24984565 -0.4507055 2.3160331
-0.15006323 -0.45097125 2.3177366
-0.050055806 -0.45131937 2.3194306
0.050504889 -0.45061657 2.3232846
0.15036146 -0.45049876 2.3258233
0.25047192 -0.45025909 2.3275499
0.3504495 -0.44851559 2.3294075
0.44889629 -0.4484413 2.3275018
0.54950321 -0.44882631 2.3281112
0.65081567 -0.44926915 2.3304086
0.75021052 -0.44970375 2.3326638
0.84979939 -0.45013911 2.3349218
0.94957989 -0.45057556 2.337184
1.0495557 -0.45101255 2.3394511
1.1492054 -0.45027611 2.3417039
1.2500825 -0.44977501 2.3439856
1.3270806 -0.45011005 2.3457317
-1.0775319 -0.34987271 2.350024
0.455093 -0.34949487 2.3307188
0.54936099 -0.35016182 2.3275084
0.65093917 -0.34874555 2.3298004
0.7500118 -0.34874383 2.3320448
0.84957409 -0.3490811 2.3343019
0.94932789 -0.34941956 2.3365631
1.0492768 -0.34975821 2.3388293
1.1494181 -0.35009801 2.3410995
1.2497551 -0.35043806 2.3433745
1.3267348 -0.35069901 2.34512
-1.0778304 -0.25020322 2.3463204
0.45392606 -0.25109026 2.3322852
0.54921877 -0.25154889 2.3269053
0.65017116 -0.25005886 2.3291836
0.74981731 -0.24993868 2.3314395
0.84935379 -0.25018057 2.3336957
0.94955784 -0.25006896 2.3359649
1.0495937 -0.24904436 2.3382249
1.1491125 -0.24879925 2.3404777
1.2494218 -0.24904095 2.3427505
1.326381 -0.24922639 2.3444951
-1.0782288 -0.14989102 2.3469722
0.45370537 -0.15065694 2.3314865
0.5490737 -0.15089034 2.3262908
0.65030599 -0.15103927 2.3285844
0.74962294 -0.1511852 2.3308353
0.84913313 -0.15133144 2.3330903
0.95095909 -0.15148097 2.3353975
1.0507636 -0.14961636 2.337646
1.1499466 -0.14914978 2.339891
1.2501909 -0.15032567 2.3421679
1.3260355 -0.14991981 2.343884
-1.0786246 -0.049917538 2.3475378
0.45354551 -0.050204434 2.3306019
0.54892784 -0.050284963 2.3256752
0.65013433 -0.050334521 2.3279684
0.74942499 -0.05038318 2.3302176
0.84890807 -0.050431911 2.3324718
0.95070624 -0.050481785 2.3347771
1.050579 -0.050530702 2.3370407
1.150646 -0.050579712 2.3393078
1.2509065 -0.050628863 2.3415787
1.3256893 -0.050665475 2.3432729
-1.0790267 0.04994233 2.3484125
0.45338517 0.050180327 2.3297572
0.54878342 0.050267264 2.3250611
0.64996225 0.050316788 2.3273523
0.75048041 0.050885309 2.3296254
0.84989738 0.049891721 2.3318834
0.95045459 0.050463941 2.3341591
1.0502995 0.050512843 2.3364196
1.1503404 0.05056183 2.338686
1.2505732 0.0506109 2.3409557
1.3253363 0.050647482 2.3426485
-1.0794369 0.15006517 2.3496008
0.45322365 0.15048803 2.3289545
0.54863811 0.15076642 2.3244472
0.64979041 0.15091492 2.3267376
0.75114202 0.15106374 2.3290329
0.85057521 0.15120985 2.3312838
0.95020318 0.15135615 2.3335397
1.0500209 0.1515027 2.3358002
1.1497982 0.14981706 2.3380706
1.2502475 0.14968942 2.3403468
1.324991 0.14979772 2.3420391
-1.0798388 0.2502712 2.3504188
0.45300061 0.25081825 2.328186
0.54849344 0.25121233 2.3238337
0.6496188 0.25145987 2.3261237
0.75059253 0.25128466 2.3284113
0.85035473 0.24985306 2.3306789
0.94995582 0.25009465 2.3329339
1.0497479 0.25033697 2.3351929
1.1499754 0.24872902 2.3374724
1.2499224 0.24871603 2.3397374
1.3246455 0.24889594 2.3414285
-1.0802387 0.35012737 2.3511868
0.45439667 0.35159498 2.3271239
0.54991037 0.35120642 2.3232582
0.64900112 0.35048571 2.3255072
0.75111026 0.34975365 2.3278239
0.85013449 0.34844464 2.330075
0.94970959 0.34878162 2.3323286
1.0494753 0.34911922 2.3345864
1.1494364 0.34945756 2.336848
1.2495905 0.34979647 2.3391151
1.3242941 0.35004941 2.3408062
-1.0805973 0.45130396 2.3499348
0.45479786 0.45137945 2.3261693
0.54979461 0.45088404 2.3226492
0.64972246 0.44880015 2.3249259
0.75055432 0.44864824 2.3272111
0.84990919 0.44908154 2.3294587
0.94945717 0.44951588 2.3317103
1.0491973 0.44995081 2.3339672
1.1491315 0.45038685 2.3362284
1.2492584 0.45082355 2.3384941
1.3239422 0.45114926 2.3401833
-1.0666281 0.55602193 2.346772
-0.95004445 0.58312821 2.3451765
-0.85023409 0.5835067 2.346879
-0.74994761 0.58388436 2.3481693
-0.64953923 0.58426547 2.3499315
-0.54967666 0.58464164 2.3512013
-0.44725719 0.58546531 2.3495452
-0.34992269 0.58850604 2.3327162
-0.25054821 0.58909678 2.3288047
-0.14997135 0.58834088 2.3327644
-0.049942281 0.58880568 2.334199
0.049993597 0.58926016 2.3359962
0.15006909 0.58971608 2.3378875
0.25030035 0.59017307 2.339875
0.35043097 0.59064102 2.3413198
0.4524048 0.55321318 2.3260543
0.55067956 0.54904574 2.322073
0.64911109 0.54859424 2.3243055
0.75035608 0.54913491 2.3265955
0.84968454 0.54966509 2.3288426
0.94920665 0.55019671 2.3310935
1.0507011 0.55103207 2.3333876
1.1505871 0.55096954 2.33565
1.2488602 0.55039835 2.3378801
1.3238564 0.54962975 2.3395832
-0.40523028 0.60947353 2.3000531
-0.34725273 0.64912736 2.301125
-0.24883312 0.65136653 2.3033419
-0.14995435 0.64951712 2.3055925
-0.049889531 0.6486671 2.307864
0.049954608 0.64930195 2.3101215
0.14999428 0.64993763 2.3123839
0.25022995 0.65057486 2.3146513
0.35066253 0.65121293 2.3169217
0.45089534 0.65134507 2.3191917
0.55002254 0.64830464 2.321455
0.64894015 0.64892936 2.3236914
0.75015771 0.64956844 2.3259804
0.84945965 0.65019566 2.3282268
0.9489547 0.65082395 2.3304758
1.0506026 0.65129763 2.3327751
1.1506547 0.64999795 2.3350492
1.2510936 0.64895087 2.3373311
1.3253863 0.64899397 2.3390138
-0.33464473 0.74723881 2.3008149
-0.24892558 0.75094777 2.3027337
-0.14907478 0.75106144 2.3049948
-0.050331578 0.74897408 2.3072441
0.049941454 0.74899846 2.3095152
0.14995489 0.74973118 2.3117757
0.2501643 0.75046617 2.3140419
0.35057017 0.75120294 2.3163126
0.45110208 0.75072557 2.3185921
0.54987776 0.74848998 2.3208432
0.64876896 0.74921155 2.3230779
0.74995929 0.74994725 2.3253663
0.8503136 0.75121617 2.327632
0.94974113 0.75087124 2.329886
1.0505729 0.74995351 2.3321753
1.1503555 0.7486707 2.334444
1.2504086 0.7493965 2.3367052
1.3250346 0.74993724 2.3383932
-0.32154715 0.84482563 2.300518
-0.24886057 0.850299 2.3021307
-0.1494588 0.85112858 2.3043778
-0.049567398 0.85039431 2.3066459
0.049928393 0.84864229 2.3089099
0.1499154 0.84947306 2.3111682
0.25009835 0.85030496 2.3134339
0.35047799 0.85113895 2.3157027
0.45103118 0.85049909 2.3179843
0.54973269 0.84862262 2.3202312
0.64859736 0.84944046 2.3224657
0.7497614 0.85027623 2.3247519
0.85112464 0.85111451 2.3270428
0.950077 0.8506791 2.3292871
1.0503041 0.84865332 2.3315692
1.1500504 0.84938997 2.3338242
1.2500768 0.85021269 2.3360846
1.3246826 0.85082644 2.3377721
-0.30915627 0.93655461 2.3002415
-0.24879679 0.94752991 2.3015428
-0.14942046 0.94845426 2.3037872
-0.049685109 0.94920254 2.3060431
0.049915284 0.94823402 2.3083045
0.14987606 0.94916207 2.3105628
0.25003287 0.95009208 2.3128262
0.35038602 0.95102286 2.3150938
0.45096311 0.95047987 2.3173752
0.55030763 0.94918615 2.3196328
0.64910841 0.94915253 2.321871
0.74956328 0.95055062 2.3241379
0.8508153 0.95140296 2.3264267
0.95081824 0.94902319 2.3287055
1.049942 0.94913745 2.3309507
1.1497458 0.95005566 2.3332057
1.2497445 0.95097572 2.335465
1.3240873 0.95072711 2.3371508
0.4844279 1.0001746 2.3178306
0.55161375 1.0008298 2.3193486
0.65044111 1.001793 2.3215811
0.74946028 1.0027585 2.323818
0.85272759 1.0035979 2.326153
0.95019251 1.0026233 2.3283663
1.0497911 1.0035924 2.3306162
1.149581 1.0045631 2.3328707
1.2495652 1.0055358 2.3351297
1.3265139 1.0051175 2.3368752
-1.0576222 -0.41284543 2.423281
-0.94035095 -0.41637152 2.4258249
-0.84953886 -0.41600782 2.4305296
-0.75037134 -0.41565475 2.4284666
-0.65027702 -0.4153001 2.4261103
-0.55035597 -0.41494265 2.4243064
-0.44950408 -0.41458362 2.4222088
-0.34430125 -0.41416493 2.4272368
-0.2496012 -0.41379565 2.4305096
-0.15021929 -0.41344422 2.4280629
-0.050280657 -0.41308656 2.4263413
0.045810264 -0.41269892 2.431782
0.15022427 -0.41229951 2.4342031
0.2534748 -0.41187364 2.4416523
0.3498823 -0.41151085 2.4429412
0.41502056 -0.40900052 2.437824
-1.0791613 -0.3538326 2.4226863
0.42093447 -0.35166097 2.4356396
-1.0794075 -0.24976195 2.4159231
0.42037871 -0.24944656 2.4429224
-1.0798055 -0.15021496 2.4166543
0.42004338 -0.15028508 2.4409697
-1.0802096 -0.050088324 2.4175589
0.41969833 -0.050549712 2.4393456
-1.0806142 0.050113324 2.4184644
0.41935661 0.050494846 2.4373593
-1.0810188 0.15039003 2.4193699
0.41902524 0.150639 2.4350572
-1.0814183 0.25019324 2.4201021
0.41868198 0.24989001 2.4334409
-1.0817339 0.34634537 2.4177725
0.41834438 0.34971777 2.4314756
-1.0821085 0.4492476 2.4169111
0.41801485 0.44936013 2.4291856
-1.0664436 0.55781502 2.4169269
-0.95046371 0.58356726 2.4169588
-0.84977597 0.58394969 2.4187343
-0.75002921 0.58432734 2.4202986
-0.65015328 0.58470553 2.4218655
-0.55014795 0.58508444 2.4234338
-0.45001307 0.58546346 2.425005
-0.34974828 0.58584303 2.4265771
-0.24791756 0.58617538 2.419534
-0.15045124 0.58654076 2.4204919
-0.050179265 0.58692026 2.4220579
0.050222568 0.58730006 2.4236259
0.15272224 0.58773059 2.4321454
0.25017461 0.58811438 2.4361238
0.350245 0.58849192 2.4374857
0.41582808 0.55301708 2.4296172
