# .PCD v0.7 - Point Cloud Data file format
VERSION 0.7
FIELDS x y z
SIZE 4 4 4
TYPE F F F
COUNT 1 1 1
WIDTH 497
HEIGHT 1
VIEWPOINT 0 0 0 1 0 0 0
POINTS 497
DATA ascii
-1.3103307 -0.83366024 2.2905965
-1.2491761 -0.83416748 2.2919905
-1.1486441 -0.83454883 2.2942781
-1.0516201 -0.83237797 2.2964694
-0.95113528 -0.83215678 2.298753
-0.89480519 -0.81400096 2.2999151
-1.3100235 -0.75094569 2.2900615
-1.2502337 -0.75172555 2.2914257
-1.1506828 -0.74923474 2.293673
-1.0507033 -0.74873751 2.2959428
-0.95030028 -0.74948311 2.2982295
-0.88450253 -0.74101955 2.2996702
-1.3096486 -0.6496712 2.2894056
-1.2506434 -0.6499697 2.2907498
-1.1505815 -0.64862949 2.2930162
-1.0504076 -0.64927518 2.2952969
-0.95003307 -0.64992183 2.2975838
-0.87071455 -0.64604795 2.2993615
-1.3092742 -0.54845434 2.2887509
-1.2502075 -0.54877663 2.2900958
-1.1502588 -0.54932225 2.2923727
-1.0501125 -0.54986888 2.2946522
-0.94976622 -0.55041629 2.2969377
-0.8564232 -0.54810882 2.2990446
-1.3089077 -0.44935971 2.2881091
-1.2498571 -0.44962385 2.289454
-1.149936 -0.45007059 2.2917292
-1.049818 -0.45051813 2.294008
-0.94949901 -0.4509666 2.2962916
-0.84898108 -0.45141602 2.2985804
-0.79062462 -0.43361378 2.2997904
-1.3085407 -0.35032049 2.2874682
-1.2495066 -0.35052645 2.2888124
-1.1496135 -0.35087445 2.2910857
-1.0612216 -0.36453369 2.2935567
-0.94916683 -0.38272718 2.2960219
-0.84881693 -0.38300666 2.2981353
-0.78291041 -0.38221967 2.2996292
-1.3088433 -0.25384247 2.2868295
-1.2497816 -0.25083271 2.2881517
-1.1492844 -0.24966943 2.2904298
-1.0821642 -0.24989174 2.2924774
-1.3098339 -0.1503451 2.2861285
-1.2509841 -0.15027428 2.2874658
-1.1500411 -0.14902335 2.2897525
-1.0830878 -0.14722212 2.2919395
-1.3094598 -0.049415901 2.285475
-1.2504768 -0.049444903 2.2868164
-1.1506737 -0.049493946 2.2890861
-1.0837307 -0.049543958 2.2914271
-1.3090934 0.049397472 2.2848363
-1.2501272 0.049426463 2.2861769
-1.1503503 0.049475469 2.2884443
-1.0835118 0.049530778 2.2909679
-1.30872 0.1502122 2.2841835
-1.2497697 0.15030032 2.2855232
-1.150022 0.15044928 2.2877905
-1.0844336 0.14772011 2.289844
-1.3083462 0.25096983 2.2835319
-1.249413 0.25111696 2.2848721
-1.1496929 0.25136605 2.2871368
-1.0845178 0.25000787 2.2889895
-1.3079813 0.34961513 2.2828929
-1.2490634 0.34982029 2.2842307
-1.1493715 0.35016713 2.2864962
-1.0844251 0.35047957 2.2885325
-1.3076084 0.45025867 2.2822418
-1.250365 0.44984117 2.2835469
-1.1505069 0.44931865 2.285821
-1.0842135 0.44935164 2.2880883
-1.3072351 0.55084497 2.2815907
-1.2501626 0.55089182 2.2828894
-1.1507564 0.54964703 2.2851577
-1.0840524 0.54998547 2.2875969
-1.3068699 0.64932287 2.2809546
-1.2500324 0.64969039 2.2822437
-1.1504276 0.65033382 2.2845044
-1.0545679 0.65927559 2.2868836
-0.95051831 0.66614366 2.2890651
-0.85041934 0.6667161 2.291296
-0.75001085 0.66530496 2.293546
-0.64940578 0.66595823 2.2957957
-0.55066925 0.66660821 2.2980363
-0.48224947 0.66990232 2.2995691
-1.3064977 0.74979556 2.2803049
-1.2496765 0.75021923 2.2815938
-1.1504405 0.74933112 2.2838557
-1.0503314 0.74965143 2.28613
-0.95035815 0.75039554 2.288398
-0.85018718 0.75113982 2.2906713
-0.74982005 0.74982661 2.2929618
-0.64972591 0.74929917 2.2952416
-0.55054009 0.74924016 2.2974973
-0.47011158 0.75380695 2.2992969
-1.306766 0.84702659 2.2796602
-1.2500991 0.85115802 2.2809229
-1.1494483 0.84988135 2.2832186
-1.0501103 0.85024077 2.285476
-0.95009142 0.84911144 2.2877569
-0.84994853 0.84995461 2.2900288
-0.7496053 0.85079914 2.2923048
-0.64859658 0.85034108 2.2946048
-0.55088317 0.84948242 2.2968328
-0.45606181 0.85159582 2.2989752
-0.3998872 0.89508432 2.2999668
-1.3078099 0.9423607 2.2790117
-1.2510219 0.94289333 2.280298
-1.1494697 0.94384509 2.282603
-1.0496572 0.94469154 2.2848656
-0.94983697 0.94366235 2.2871432
-0.84971994 0.94459903 2.2894139
-0.74940366 0.94553775 2.2916889
-0.64888865 0.94647807 2.2939689
-0.54968607 0.94643772 2.2962241
-0.45138219 0.94626075 2.2984612
-0.39099398 0.95861501 2.2997522
-0.90215904 -0.85906094 2.3000436
-0.84794557 -0.83416373 2.3011127
-0.75187069 -0.83338386 2.3032928
-0.65010232 -0.83289093 2.3056033
-0.5488736 -0.83164024 2.3078969
-0.44986033 -0.8322069 2.3101525
-0.34996447 -0.83118576 2.3124166
-0.25021806 -0.83200294 2.3146906
-0.15027523 -0.83282173 2.3169684
-0.049853705 -0.83049095 2.3192363
0.050200917 -0.83027208 2.3215106
0.15073498 -0.83109105 2.3238018
0.25059763 -0.83089072 2.326071
0.35029194 -0.83061528 2.3283365
0.45009458 -0.83069229 2.3306055
0.5501551 -0.82980216 2.332875
0.65003264 -0.82883537 2.33514
0.74963272 -0.82964087 2.33741
0.84942484 -0.83044833 2.3396847
0.94877034 -0.82960421 2.3419378
1.0498626 -0.82800817 2.3442261
1.1499599 -0.82864189 2.3465068
1.2496663 -0.82865131 2.3487735
1.327686 -0.82794976 2.3505433
-0.83699751 -0.75359213 2.3008337
-0.75095481 -0.75096488 2.3027732
-0.64979506 -0.75154424 2.3050764
-0.5487448 -0.74830151 2.3073535
-0.44941172 -0.74903536 2.309617
-0.349884 -0.74977052 2.3118842
-0.25016049 -0.75050855 2.314158
-0.15024056 -0.75124776 2.3164337
-0.050601088 -0.75060731 2.3186963
0.050189342 -0.74853772 2.3209743
0.15070008 -0.74927545 2.3232644
0.25140941 -0.75001633 2.3255596
0.35021293 -0.75074214 2.3278108
0.44873306 -0.75078422 2.3300509
0.55050623 -0.75010794 2.3323612
0.65011716 -0.74899572 2.3346186
0.74946237 -0.74945676 2.3368807
0.84923232 -0.75018561 2.3391545
0.94919747 -0.75091708 2.3414323
1.0491822 -0.74972159 2.343698
1.149706 -0.75026309 2.3459873
1.2506888 -0.74950594 2.348279
1.3273914 -0.74943721 2.3500221
-0.8228904 -0.6562227 2.3005157
-0.75074315 -0.65120625 2.302124
-0.64949566 -0.65109849 2.3044243
-0.54858965 -0.64834493 2.3067012
-0.44928482 -0.64898092 2.3089638
-0.34978497 -0.64961821 2.3112307
-0.25008965 -0.65025657 2.3135023
-0.15019803 -0.65089595 2.3157768
-0.050109852 -0.65153688 2.3180571
0.050532036 -0.64963555 2.3203337
0.15065733 -0.64862996 2.3226037
0.25133789 -0.64927053 2.3248971
0.35011309 -0.64989907 2.327148
0.4490813 -0.65052843 2.329402
0.55035251 -0.65117288 2.3317094
0.64946604 -0.64998174 2.3339555
0.74934042 -0.65023857 2.3362279
0.85016078 -0.64832479 2.3385079
0.95005631 -0.6500268 2.3407896
1.049055 -0.65011632 2.3430419
1.1493806 -0.65075034 2.3453276
1.2494494 -0.64992797 2.3475971
1.3270174 -0.64975268 2.3493598
-0.80980641 -0.56659281 2.300226
-0.75053144 -0.5515036 2.3014748
-0.64971215 -0.55021423 2.3037586
-0.54861319 -0.5482859 2.3060448
-0.44915771 -0.5489828 2.3083112
-0.34968597 -0.54952163 2.3105769
-0.25001872 -0.55006152 2.3128462
-0.15015548 -0.55060232 2.3151217
-0.050095566 -0.55114436 2.3174005
0.049813367 -0.55126363 2.3196723
0.15097243 -0.54968703 2.3219628
0.25126642 -0.54858267 2.3242352
0.35001329 -0.54911321 2.3264849
0.44895315 -0.54964519 2.328738
0.55019552 -0.55018944 2.3310437
0.64952219 -0.55072337 2.3333061
0.74895781 -0.55117333 2.3355694
0.8508755 -0.54969591 2.3378775
0.95078629 -0.55023104 2.3401525
1.0508077 -0.54907233 2.3424196
1.1505473 -0.54963571 2.3446913
1.249543 -0.54971349 2.3469429
1.3266437 -0.55012447 2.3486984
-0.74383861 -0.4534173 2.3009837
-0.6519109 -0.4488537 2.303045
-0.55034494 -0.44859242 2.3053524
-0.44903055 -0.44904122 2.3076591
-0.34958714 -0.44948184 2.3099232
-0.24994786 -0.44992352 2.312192
-0.15011297 -0.45036566 2.3144643
-0.050081421 -0.45080885 2.316741
0.050147172 -0.45125282 2.3190243
0.15022479 -0.45127434 2.3213
0.2511963 -0.45004731 2.3235879
0.35014376 -0.4486497 2.3258293
0.44882524 -0.44881922 2.3280742
0.55003828 -0.44926363 2.3303785
0.64933628 -0.44969931 2.3326387
0.74882889 -0.45013613 2.3349044
0.85063708 -0.45058292 2.3372226
0.95051974 -0.45102116 2.3394969
1.0500635 -0.45024765 2.3417542
1.1508632 -0.44978622 2.3440437
1.2491912 -0.45021573 2.3462822
1.3262702 -0.45055249 2.3480375
-1.062075 -0.34129477 2.3480985
-0.94984835 -0.36597264 2.3484507
-0.84794062 -0.36550111 2.3577409
-0.74066359 -0.37546629 2.323626
-0.65088052 -0.37610945 2.3194058
-0.55006921 -0.37639627 2.3198061
-0.44918531 -0.37636819 2.3208616
-0.34964362 -0.37651533 2.3216996
-0.25006515 -0.37670213 2.3228896
-0.15021342 -0.37684152 2.3241007
-0.050094567 -0.37702841 2.3250985
0.0501264 -0.37721565 2.326194
0.15087344 -0.37723947 2.3281741
0.25070727 -0.37640217 2.3339379
0.34941995 -0.37464926 2.3364501
0.45261315 -0.35246775 2.3328178
0.55023313 -0.34881943 2.3297248
0.65118122 -0.34865624 2.3320184
0.75064063 -0.34916693 2.3342843
0.85039353 -0.34941816 2.3365533
0.95024753 -0.34975803 2.3388264
1.0502971 -0.35009852 2.341104
1.1505394 -0.3504402 2.3433852
1.248841 -0.35077444 2.3456237
1.3258969 -0.35103664 2.3473766
-1.0707344 -0.25011632 2.3490291
0.45833489 -0.25122619 2.3336637
0.5493688 -0.25013539 2.3290579
0.65108377 -0.24993128 2.3313699
0.75052249 -0.25017381 2.333632
0.85015535 -0.25041693 2.3358994
0.95013785 -0.24872921 2.3381622
1.0499961 -0.24879473 2.3404324
1.1502098 -0.24903704 2.3427136
1.2506214 -0.24927998 2.3449979
1.3276572 -0.24946636 2.3467505
-1.0711758 -0.15008737 2.350054
0.45815781 -0.15067683 2.3326433
0.54957449 -0.15102816 2.3284132
0.65090191 -0.15117772 2.3307185
0.75031263 -0.15132429 2.3329792
0.84991789 -0.15147133 2.3352451
0.94954151 -0.14970189 2.3374996
1.0497017 -0.14965726 2.3397765
1.1498872 -0.14980309 2.3420565
1.2502689 -0.14994906 2.3443391
1.3272836 -0.15006116 2.3460913
-1.0716088 -0.049984492 2.3507063
0.45798099 -0.05020966 2.3316758
0.54941803 -0.050329968 2.3277497
0.65071642 -0.050379775 2.3300536
0.75009865 -0.050428677 2.3323135
0.84967571 -0.050477635 2.3345785
0.94944322 -0.050526664 2.3368473
1.0494069 -0.050575841 2.3391204
1.1495637 -0.050625108 2.3413985
1.2499183 -0.050674431 2.3436804
1.3269105 -0.050712306 2.3454304
-1.0720479 0.050011825 2.351671
0.45781279 0.050184701 2.3308048
0.54926127 0.05031085 2.327086
0.65053076 0.050360635 2.3293889
0.74988413 0.050409477 2.3316476
0.84943116 0.050458405 2.3339107
0.94917142 0.050507426 2.3361781
1.0491067 0.05055654 2.3384509
1.1492351 0.050605748 2.3407271
1.24956 0.0506551 2.3430083
1.3265299 0.050692897 2.3447583
-1.0724205 0.15087053 2.3495145
0.45758176 0.150602 2.3300943
0.54910475 0.15089439 2.3264234
0.65034515 0.15104359 2.3287256
0.74967015 0.15119003 2.330982
0.84918833 0.15133682 2.3332441
0.95085353 0.15164794 2.3355539
1.0503442 0.14992811 2.3378274
1.1493905 0.15002768 2.3400788
1.2496589 0.14947116 2.3423622
1.3261571 0.14992936 2.3440993
-1.0728208 0.24969353 2.3489785
0.45741606 0.25105181 2.3291385
0.54894835 0.25142056 2.3257613
0.65007561 0.25158522 2.3280597
0.74946058 0.24981554 2.3303313
0.84895194 0.25005782 2.3325918
0.95075846 0.25030592 2.3349059
1.0510414 0.24897763 2.3371952
1.1507225 0.24868669 2.339463
1.2509935 0.2489289 2.3417411
1.3257843 0.24910948 2.3434408
-1.0732404 0.34918535 2.3491616
0.45679551 0.35187703 2.3293881
0.54825938 0.35077646 2.3250935
0.65006667 0.35005236 2.3274133
0.7502417 0.34892175 2.329699
0.84966379 0.34819555 2.3319643
0.95049167 0.34906894 2.3342514
1.0503447 0.34940836 2.3365195
1.1503928 0.34974831 2.3387921
1.250634 0.35008848 2.3410699
1.3254038 0.35034266 2.3427687
-1.0735912 0.44994119 2.346077
0.45519057 0.45093378 2.3308604
0.54917341 0.44905737 2.3244708
0.64979756 0.44856161 2.3267617
0.75115192 0.44900534 2.3290634
0.85058916 0.44944057 2.3313227
0.95022041 0.44987679 2.3335843
1.0500448 0.45031393 2.3358519
1.1500632 0.45075184 2.3381233
1.250276 0.4511905 2.3403983
1.3247629 0.45066032 2.3420959
-1.0740207 0.55012339 2.3465686
0.45562899 0.54948157 2.3299146
0.54848605 0.54847568 2.3238037
0.64961225 0.54901731 2.3260999
0.75093794 0.5495609 2.3283997
0.85034645 0.55009329 2.3306565
0.94994855 0.55062717 2.3329184
1.0497439 0.55116183 2.3351839
1.1492077 0.55049002 2.3374498
1.2499261 0.55013025 2.3397424
1.3249221 0.54963088 2.3414509
-1.0530187 0.62651461 2.3462298
-0.95000678 0.63404578 2.3460028
-0.84982121 0.63445985 2.3476369
-0.75020128 0.6348694 2.3489292
-0.65010566 0.63528591 2.3509693
-0.54986697 0.63569623 2.3519866
-0.43808389 0.6552031 2.319679
-0.34882075 0.65941483 2.3169413
-0.24942434 0.66005886 2.3187587
-0.14987214 0.65877843 2.321485
-0.049942791 0.6603924 2.3198237
0.050002657 0.66098791 2.3219078
0.15001692 0.66163319 2.3239961
0.25031656 0.66213429 2.3262153
0.35069793 0.66287965 2.3281202
0.45147026 0.64923859 2.3256943
0.55007106 0.64848632 2.323184
0.64942718 0.64941669 2.3254373
0.75072396 0.65005851 2.3277361
0.8501035 0.65068859 2.3299913
0.94967812 0.65131968 2.3322515
1.0491463 0.65022922 2.3345208
1.1499431 0.64924031 2.3368194
1.249575 0.64901376 2.3390861
1.3242809 0.64948452 2.3407819
-0.42009279 0.74427235 2.3004959
-0.34848997 0.75081754 2.3020813
-0.24901637 0.75138062 2.3043394
-0.15007763 0.74937129 2.3066025
-0.049911551 0.74879265 2.3088834
0.049976856 0.74952817 2.3111498
0.15006159 0.75026554 2.3134203
0.25034299 0.75100225 2.315697
0.35066167 0.75157368 2.3179731
0.45150459 0.74831069 2.3202887
0.55027735 0.74903452 2.3225293
0.64924181 0.74975711 2.3247747
0.7505101 0.75049919 2.3270733
0.84986162 0.75122601 2.3293278
0.94895935 0.75048596 2.3315856
1.0494504 0.74884301 2.3338814
1.1490903 0.74921507 2.3361449
1.2492167 0.74994481 2.3384171
1.3239007 0.75048786 2.340111
-0.41003063 0.82714999 2.3001816
-0.35020235 0.84987319 2.3013928
-0.2490285 0.85087299 2.3036871
-0.14908174 0.85091305 2.3059595
-0.05023713 0.84883589 2.3082211
0.049962718 0.84922516 2.3104968
0.15001902 0.85005957 2.3127654
0.25027215 0.85089535 2.3150413
0.35072312 0.85138559 2.3173211
0.45137659 0.84840292 2.3196292
0.55012077 0.84922212 2.3218694
0.64905709 0.850043 2.3241131
0.75029629 0.85088277 2.3264108
0.8491863 0.85108501 2.3286564
0.94958842 0.84893894 2.330955
1.050981 0.84918368 2.3332584
1.1508888 0.85000849 2.3355255
1.2496791 0.85132992 2.3377624
1.3242831 0.85042292 2.3394651
-0.34148964 0.94474411 2.3009694
-0.24895972 0.94815099 2.3030508
-0.14951888 0.9490791 2.3053064
-0.04953764 0.94835657 2.3075838
0.049948599 0.94886589 2.3098423
0.14997654 0.94979739 2.3121116
0.25020143 0.95073158 2.3143845
0.35069987 0.95140439 2.3166645
0.45124832 0.94843745 2.3189712
0.54996461 0.9493531 2.3212092
0.64887279 0.95027065 2.3234532
0.75008261 0.95120919 2.3257475
0.84942156 0.94994587 2.3280149
0.94887626 0.94886577 2.3302832
1.0506811 0.94980597 2.332592
1.1505598 0.95072818 2.334857
1.2500982 0.95070672 2.3371205
1.3252848 0.95024055 2.3388338
0.39874968 1.0000057 2.3174391
0.45118162 1.0005187 2.3186276
0.54988307 1.0014844 2.3208656
0.64877689 1.0024521 2.3231084
0.74997133 1.0034422 2.325403
0.85464609 1.0026886 2.3277879
0.94872957 1.003294 2.3299234
1.0505185 1.0042878 2.3322315
1.1503818 1.0052627 2.3344958
1.2556096 1.0051159 2.3368895
1.325079 1.0048679 2.3384707
-1.0591687 -0.34441352 2.4181852
-0.94971913 -0.36552572 2.4149454
-0.85391772 -0.36507782 2.4243689
-0.74434006 -0.36462015 2.4270129
-0.65051305 -0.36418504 2.4357262
-0.55008775 -0.36380121 2.4328349
-0.44991252 -0.3634184 2.429949
-0.34991902 -0.36303216 2.427691
-0.2501435 -0.3626509 2.4248173
-0.14692988 -0.36222428 2.4266465
-0.050444525 -0.36178604 2.4341648
0.050372481 -0.36139843 2.431556
0.14828627 -0.3610158 2.4298809
0.2506026 -0.36053467 2.4403942
0.35135314 -0.36014655 2.4377675
0.42502177 -0.33674881 2.4360895
-1.0723295 -0.250101 2.4192727
0.4277156 -0.2500585 2.4349453
-1.0727725 -0.15044963 2.4204345
0.4273552 -0.1504961 2.4325228
-1.0732145 -0.05016825 2.421432
0.42692864 -0.048551768 2.4325724
-1.073657 0.050195802 2.42243
0.42636037 0.049999293 2.4394579
-1.0740689 0.14831218 2.4225082
0.42598602 0.149854 2.4375958
-1.0744222 0.25063223 2.419215
0.42562348 0.24955457 2.4352407
-1.074846 0.35203099 2.4192069
0.42519346 0.34690127 2.4362767
-1.0751798 0.44998932 2.4158869
0.42461985 0.45101535 2.4423721
-1.0756243 0.55033791 2.4169886
0.42425814 0.55101895 2.439918
-1.0520437 0.62780732 2.4186382
-0.94999266 0.6345433 2.4206038
-0.85023487 0.63495523 2.4221752
-0.74963605 0.63536906 2.423516
-0.64889055 0.63578665 2.4253461
-0.54945904 0.63619536 2.4266601
-0.44992685 0.63660806 2.4284799
-0.3495189 0.63702261 2.4300618
-0.24970919 0.63743484 2.4316349
-0.14980252 0.6378423 2.432466
-0.050266914 0.63820189 2.4262893
0.050310507 0.63861704 2.4278688
0.15046597 0.63902873 2.429158
0.2501961 0.63944173 2.4309137
0.35006434 0.63985288 2.4322908
0.41866535 0.62916499 2.4364343
