# .PCD v0.7 - Point Cloud Data file format
VERSION 0.7
FIELDS x y z
SIZE 4 4 4
TYPE F F F
COUNT 1 1 1
WIDTH 389
HEIGHT 1
VIEWPOINT 0 0 0 1 0 0 0
POINTS 389
DATA ascii
-1.3159249 -0.53219146 2.3076456
-1.2502167 -0.53254181 2.3091667
-1.1497865 -0.53283197 2.3114905
-1.0505309 -0.53152299 2.3137851
-0.95142198 -0.53204995 2.3160794
-0.85004467 -0.53258884 2.3184254
-0.74846303 -0.53312939 2.3207777
-0.64902121 -0.53122652 2.3230753
-0.54884446 -0.52999902 2.3253911
-0.44873783 -0.53052747 2.3277087
-0.34843183 -0.53105664 2.3300302
-0.25002196 -0.53157592 2.3323081
-0.15228693 -0.5310756 2.3345692
-0.050517518 -0.53052229 2.3369226
0.050584946 -0.53105378 2.3392632
0.150545 -0.53081131 2.3415761
0.24916458 -0.52998507 2.3438561
0.35003802 -0.52922601 2.3461893
0.4506501 -0.52892303 2.3485167
0.55063027 -0.52944434 2.3508308
0.65080613 -0.52996641 2.3531499
0.74904341 -0.5304783 2.3554232
0.84881294 -0.52952659 2.3577306
0.95037842 -0.52940112 2.36008
1.0498887 -0.52831435 2.3623812
1.1503571 -0.52830851 2.3647056
1.2517208 -0.5288325 2.3670521
1.3332341 -0.52801144 2.3689368
-1.3158468 -0.44901025 2.3075085
-1.2501423 -0.44930607 2.3090305
-1.149377 -0.44976011 2.3113616
-1.05047 -0.45020553 2.3136511
-0.95136654 -0.45065179 2.3159451
-0.84999543 -0.45110831 2.3182912
-0.74842 -0.45156589 2.3206425
-0.64901423 -0.45028168 2.3229406
-0.54837728 -0.44886881 2.3252666
-0.44871187 -0.44872081 2.3275721
-0.34841144 -0.44916835 2.3298948
-0.25000724 -0.44960746 2.3321722
-0.15140928 -0.45004755 2.3344538
-0.050514638 -0.45049769 2.3367894
0.050582081 -0.45094877 2.3391294
0.14930214 -0.45067537 2.3414133
0.24915048 -0.4497228 2.3437221
0.35084832 -0.45017451 2.3460758
0.45071298 -0.45052212 2.348388
0.55059874 -0.44894341 2.3506958
0.65076911 -0.44938618 2.353014
0.74899966 -0.44982025 2.3552885
0.84956437 -0.45026493 2.3576159
0.95032513 -0.45071036 2.3599479
1.0487257 -0.44958928 2.3622227
1.1502924 -0.44946337 2.364573
1.2516505 -0.44990945 2.3669186
1.3337413 -0.45027059 2.3688188
-1.3157537 -0.34920543 2.3073444
-1.2500536 -0.34943578 2.3088651
-1.1492956 -0.34978873 2.3111968
-1.0503954 -0.35013521 2.3134863
-0.95129848 -0.35048211 2.315779
-0.84993458 -0.35083708 2.318126
-0.7483657 -0.35119313 2.3204765
-0.64866972 -0.35154229 2.3227844
-0.5492177 -0.35042483 2.3250828
-0.44868034 -0.35014525 2.3274088
-0.34815642 -0.34864897 2.3297327
-0.24998933 -0.34873572 2.3320043
-0.15139839 -0.34907725 2.3342865
-0.050510976 -0.34942663 2.3366213
0.050578367 -0.34977627 2.3389626
0.14975747 -0.35011965 2.3412557
0.24913281 -0.35046348 2.3435571
0.35082346 -0.35081518 2.3459098
0.45050809 -0.3510724 2.3482158
0.5505597 -0.34938869 2.3505285
0.65072292 -0.34973329 2.3528481
0.74894667 -0.35007155 2.3551204
0.84950364 -0.3504172 2.3574483
0.95025742 -0.35076392 2.3597808
1.0495764 -0.34988031 2.3620765
1.1502109 -0.3493214 2.3644044
1.251561 -0.34966749 2.3667498
1.3336465 -0.34994853 2.36865
-1.3156602 -0.24941489 2.3071804
-1.2499652 -0.24957937 2.3087006
-1.1492137 -0.2498315 2.3110328
-1.0503201 -0.25007877 2.3133214
-0.951231 -0.2503266 2.3156149
-0.84987384 -0.25058025 2.31796
-0.74831223 -0.25083438 2.3203111
-0.64862317 -0.25108379 2.3226178
-0.54873538 -0.25133368 2.3249292
-0.44864893 -0.25158408 2.3272452
-0.34859937 -0.25000769 2.3295588
-0.24997191 -0.24998015 2.3318408
-0.15138769 -0.25022465 2.3341212
-0.050100159 -0.24993235 2.3364649
0.05057478 -0.24861844 2.3387916
0.14974664 -0.24886245 2.3410876
0.24911469 -0.24910696 2.3433869
0.35079813 -0.24935704 2.3457403
0.4505603 -0.2496025 2.3480492
0.55052066 -0.24984844 2.350363
0.65067655 -0.25009474 2.3526807
0.74889326 -0.25033641 2.3549542
0.84944302 -0.25058389 2.3572807
0.95018965 -0.25083163 2.359612
1.0484669 -0.24989259 2.3618844
1.1501285 -0.24919328 2.3642359
1.251471 -0.24944051 2.366581
1.333551 -0.24964064 2.3684804
-1.3155664 -0.14963859 2.3070171
-1.2498759 -0.14973722 2.308537
-1.1491323 -0.14988852 2.310869
-1.0502458 -0.15003681 2.3131571
-0.95116305 -0.15018556 2.3154497
-0.84981328 -0.15033773 2.317795
-0.74825889 -0.15048999 2.3201447
-0.64857697 -0.15063983 2.3224518
-0.54869634 -0.15078972 2.3247633
-0.44861665 -0.15094 2.3270791
-0.34833783 -0.15109041 2.3293996
-0.24995431 -0.15123813 2.3316753
-0.15137693 -0.15138605 2.3339567
-0.050902516 -0.15102701 2.3362823
0.050571207 -0.14958209 2.3386273
0.14973612 -0.14972889 2.3409219
0.24909718 -0.14987583 2.3432224
0.35077336 -0.15002641 2.3455734
0.4505282 -0.15017408 2.3478823
0.55048162 -0.15032199 2.3501961
0.65063024 -0.15047039 2.3525133
0.74884003 -0.15061563 2.3547864
0.84938258 -0.15076451 2.3571129
0.95012224 -0.15091363 2.3594437
1.0494303 -0.15011294 2.3617404
1.1500463 -0.14907962 2.3640676
1.251382 -0.14922746 2.3664126
1.3334554 -0.14934726 2.3683116
-1.3154733 -0.049876377 2.3068535
-1.2497867 -0.04990926 2.3083725
-1.1490502 -0.049959645 2.3107042
-1.0455012 -0.047594182 2.321842
-0.95111644 -0.081346273 2.3153362
-0.84977162 -0.081428654 2.3176808
-0.74822259 -0.081511207 2.3200312
-0.64854509 -0.081592277 2.3223376
-0.54760146 -0.080513149 2.3290281
-0.44868881 -0.079889879 2.3327971
-0.3483865 -0.079935759 2.3338304
-0.24988489 -0.079904802 2.3349628
-0.15130028 -0.080025718 2.3358536
-0.050522659 -0.079993755 2.3369367
0.050568696 -0.08005394 2.3385139
0.14972864 -0.080132455 2.3408058
0.24908471 -0.080211096 2.3431053
0.35075578 -0.080291659 2.3454583
0.45989186 -0.068557754 2.350224
0.5504427 -0.050809897 2.3500295
0.65058416 -0.05086001 2.3523464
0.74878657 -0.050909154 2.3546188
0.84932244 -0.050959442 2.3569455
0.95005447 -0.051009864 2.3592772
1.0483209 -0.050155893 2.3615496
1.1499641 -0.048980191 2.3638988
1.2512926 -0.049028791 2.3662431
1.3333606 -0.049068097 2.3681421
-1.3153795 0.04987165 2.3066885
-1.2496979 0.04990451 2.3082089
-1.1489683 0.049954906 2.3105402
-1.0437006 0.049702436 2.3252094
0.49029583 0.052680131 2.3611493
0.5504024 0.050804991 2.349859
0.65053713 0.050855104 2.3521757
0.74873298 0.050904252 2.3544481
0.84926063 0.050954487 2.3567734
0.94998533 0.051004913 2.3591042
1.0483201 0.050425496 2.3613803
1.1498839 0.048975661 2.3637333
1.251205 0.049024191 2.3660779
1.3332673 0.049063537 2.3679764
-1.3152863 0.14960548 2.3065255
-1.2496089 0.14970407 2.3080442
-1.1488864 0.14985508 2.3103747
-1.0445142 0.14998573 2.323509
0.4897525 0.15012729 2.3641694
0.5503633 0.15028879 2.3496931
0.65049106 0.15043683 2.3520081
0.75063825 0.15074714 2.3543265
0.851147 0.15056609 2.3566525
0.94991797 0.15088004 2.358937
1.0491358 0.15035993 2.3612332
1.1498023 0.1490466 2.3635643
1.2511154 0.14919455 2.3659089
1.3331718 0.14931422 2.3678076
-1.3151926 0.24932514 2.306361
-1.2495198 0.24948955 2.3078802
-1.1488045 0.24974129 2.3102107
-1.0444586 0.2500332 2.323653
0.48966748 0.24978651 2.3629479
0.5503242 0.24975824 2.3495257
0.65044457 0.25000435 2.3518422
0.75076389 0.2502512 2.3541632
0.85128009 0.25049838 2.3564887
0.94985032 0.25074071 2.3587692
1.0483769 0.25071564 2.3610489
1.1497203 0.24910368 2.3633969
1.2510265 0.24935074 2.3657403
1.3330767 0.24955073 2.3676383
-1.3150991 0.34903079 2.3061974
-1.2494311 0.3492606 2.3077161
-1.1487228 0.34961295 2.3100457
-1.0446266 0.35001639 2.3236156
0.48950592 0.35044265 2.3624556
0.5497418 0.3502925 2.3493452
0.65039855 0.34955803 2.3516755
0.75071126 0.34990254 2.3539958
0.85121948 0.35024872 2.3563216
0.94978255 0.35058776 2.3586004
1.0487795 0.35064 2.3608913
1.1496387 0.3491466 2.3632278
1.2509379 0.34949246 2.3655713
1.3329815 0.34977293 2.3674691
-1.3150059 0.44872206 2.3060334
-1.2493428 0.44901744 2.3075514
-1.1486409 0.44947079 2.3098814
-1.0445292 0.45000628 2.3238163
0.48925662 0.45031047 2.3618214
0.5507893 0.44969252 2.3492045
0.65035248 0.44909719 2.3515086
0.75065744 0.44954035 2.3538291
0.85115886 0.44998449 2.3561535
0.9497152 0.45041984 2.358433
1.0484625 0.45085603 2.3607171
1.1495563 0.44917452 2.363059
1.2508481 0.44962004 2.3654032
1.3328862 0.44998077 2.3673003
-1.3149124 0.54839915 2.3058693
-1.2510415 0.54852438 2.3073466
-1.1503673 0.54952377 2.3096747
-1.0446943 0.55000275 2.3237417
0.4892247 0.5497824 2.3607125
0.55020678 0.55019784 2.3490226
0.65030539 0.55074018 2.3513381
0.75006056 0.55015445 2.3536465
0.8510983 0.54970634 2.3559864
0.94964808 0.55023813 2.3582659
1.0502667 0.55101365 2.3605926
1.1512555 0.54889226 2.3629332
1.2507589 0.54973322 2.3652337
1.3327911 0.55017388 2.367131
-1.3149359 0.64956158 2.3057003
-1.2512183 0.64847565 2.3071775
-1.150534 0.64913023 2.309505
-1.0447294 0.64978999 2.3238869
0.48896396 0.64989632 2.3600988
0.55016744 0.64961052 2.3488572
0.65025938 0.65025121 2.3511713
0.75109065 0.64972526 2.3535058
0.85103786 0.64941376 2.3558183
0.94958001 0.65004194 2.3580978
1.0504622 0.65068519 2.360431
1.1513016 0.64948833 2.3627667
1.2506696 0.64983225 2.3650649
1.3326962 0.65035349 2.3669627
-1.3146015 0.75125289 2.3055389
-1.2515781 0.7488966 2.3069999
-1.1504524 0.74894333 2.3093402
-1.0447179 0.74965733 2.3239851
0.48883548 0.7499156 2.3595493
0.55012906 0.74900931 2.3486905
0.65021312 0.74974781 2.3510051
0.75049621 0.75048643 2.3533237
0.85045356 0.75014156 2.3556376
0.94951266 0.74983233 2.3579302
1.0503876 0.75057334 2.3602633
1.1516972 0.74945968 2.3626084
1.2505801 0.74991649 2.3648973
1.332601 0.75051773 2.3667929
-1.3146285 0.85149676 2.3053715
-1.2510071 0.85004807 2.3068454
-1.1503699 0.84874213 2.3091769
-1.0447963 0.84953219 2.3240614
0.48873225 0.84990597 2.3585339
0.55008894 0.85050845 2.3485203
0.64964563 0.85026026 2.3508248
0.75044346 0.85006768 2.3531563
0.8514384 0.84978241 2.3554943
0.94944543 0.84960747 2.3577619
1.0503128 0.85044795 2.360095
1.1509694 0.84973216 2.3624256
1.2504907 0.84998721 2.3647273
1.3325057 0.85066885 2.3666239
-1.3145366 0.94904172 2.3052104
-1.250513 0.94902682 2.3066921
-1.1502877 0.9485265 2.3090127
-1.0455897 0.94672018 2.3186591
-0.95080489 0.95714933 2.3283629
-0.85090274 0.95852065 2.3281643
-0.75166881 0.95773089 2.3305268
-0.65013701 0.95840931 2.3321819
-0.54885298 0.95899087 2.3342745
-0.44884238 0.9596653 2.3361771
-0.35060567 0.95897514 2.3385077
-0.25128084 0.95929337 2.3403111
-0.1508071 0.96007156 2.3421938
-0.050275993 0.96089727 2.3439198
0.049724661 0.9608956 2.3459899
0.14967656 0.9602043 2.3485715
0.24918945 0.96127689 2.3499718
0.35035661 0.96200895 2.351979
0.45258003 0.95837581 2.3535519
0.55005014 0.94987887 2.3483534
0.65064049 0.94969261 2.3506813
0.7503894 0.94963431 2.3529899
0.85085529 0.95057148 2.3553123
0.94907147 0.9497484 2.3575876
1.0502377 0.95030779 2.3599269
1.1516998 0.94966334 2.3622754
1.2504026 0.95004338 2.3645599
1.3321928 0.95039105 2.3664513
-0.74350196 1.0003939 2.3183386
-0.65012091 1.0013255 2.3204978
-0.54824561 1.0023421 2.3228533
-0.44824782 1.0033398 2.3251655
-0.34354389 1.00273 2.327589
-0.25184157 1.0032021 2.3297102
-0.15125243 1.0042039 2.3320363
-0.050462261 1.0052067 2.3343666
0.055613589 1.0051754 2.3368211
0.1496129 1.0050937 2.3389964
0.24889204 1.0060799 2.3412924
0.35048407 1.0070899 2.343641
0.45192623 1.0077453 2.3459871
0.55002779 1.0069579 2.348258
0.6500935 1.0079505 2.3505719
0.75035787 1.0089444 2.3528903
0.85081929 1.0099407 2.3552129
0.95080435 1.0091156 2.3575289
1.0501933 1.0097929 2.3598263
1.1512476 1.0107929 2.3621635
1.2503468 1.0117732 2.364455
1.3333492 1.012103 2.366375
-1.0141933 -0.033671953 2.4325936
-0.9508003 -0.0638244 2.4430373
-0.85006654 -0.063533165 2.4318895
-0.75024778 -0.063244589 2.4208434
-0.65133184 -0.062958606 2.4098969
-0.58214587 -0.062758587 2.4022403
0.094160169 -0.060531691 2.4886303
0.14976946 -0.060371641 2.4820504
0.25140241 -0.060079418 2.4700363
0.35206702 -0.059791844 2.4582136
0.47648716 -0.036385238 2.4412367
-1.0146751 0.052200243 2.4312427
0.48547709 0.047367498 2.443074
-1.0149001 0.15020053 2.4278197
0.48494098 0.15292569 2.4520574
-1.0152341 0.24979869 2.4288895
0.48453972 0.25001001 2.4563596
-1.0155584 0.34983331 2.4295118
0.48427057 0.34981921 2.4545958
-1.0158892 0.44956025 2.4304197
0.48399758 0.44950688 2.4530129
-1.0162108 0.54972607 2.4308848
0.483706 0.54997206 2.452131
-1.0165498 0.65031314 2.4320376
0.48343936 0.65031779 2.4501834
-1.016871 0.75024122 2.4325356
0.48315921 0.749663 2.4489622
-1.0172083 0.85058981 2.4336507
0.48287797 0.84933972 2.4477379
-1.0146036 0.92356956 2.4326432
-0.94721723 0.9361859 2.4316545
-0.84931397 0.93648076 2.4287736
-0.75001246 0.93678653 2.4296093
-0.64893782 0.93710059 2.4319975
-0.54977638 0.93741292 2.4367995
-0.44956264 0.93772161 2.4376669
-0.34991479 0.93802887 2.4386828
-0.24988692 0.93833649 2.439338
-0.15010336 0.93864375 2.4401379
-0.050266366 0.93895102 2.4409354
0.050288439 0.93926036 2.4417403
0.15187867 0.9395771 2.444813
0.24986587 0.93988478 2.4489999
0.34981683 0.9401927 2.4499333
0.45135692 0.93558007 2.4491658
