# .PCD v0.7 - Point Cloud Data file format
VERSION 0.7
FIELDS x y z
SIZE 4 4 4
TYPE F F F
COUNT 1 1 1
WIDTH 447
HEIGHT 1
VIEWPOINT 0 0 0 1 0 0 0
POINTS 447
DATA ascii
-1.3151416 -0.71220034 2.308846
-1.2518898 -0.71028656 2.3102245
-1.1534685 -0.70728463 2.3123708
-1.0588853 -0.70410609 2.314435
-0.99720043 -0.70304722 2.3157728
-1.3148602 -0.64910525 2.3094263
-1.2490419 -0.64950264 2.3108394
-1.1501739 -0.65009922 2.3129625
-1.0511231 -0.65069681 2.3150885
-0.95041287 -0.6504997 2.3172576
-0.84890735 -0.64726108 2.3194716
-0.74958736 -0.64221805 2.321656
-0.64977235 -0.63915229 2.3238323
-0.54970747 -0.6359008 2.3260155
-0.44961849 -0.63256872 2.3281999
-0.34969589 -0.62943006 2.3303783
-0.25130489 -0.62634104 2.332525
-0.15294793 -0.62324131 2.3346703
-0.050546918 -0.61867803 2.3369162
0.048959784 -0.61449254 2.3390968
0.14704829 -0.61142695 2.341233
0.24506281 -0.60837179 2.3433716
0.34388837 -0.6052776 2.3455274
0.42503482 -0.60265911 2.3472977
-1.3153698 -0.5494557 2.310322
-1.2495272 -0.54979193 2.3117368
-1.15062 -0.55029696 2.3138607
-1.0512655 -0.55057794 2.3159969
-0.94993973 -0.55154186 2.3181682
-0.84895027 -0.55150259 2.3203425
-0.74873507 -0.54851013 2.3225272
-0.64919627 -0.54867887 2.3246677
-0.54918152 -0.54918599 2.3268156
-0.44898143 -0.54969388 2.3289683
-0.3485958 -0.55020261 2.3311241
-0.25012234 -0.55070198 2.3332381
-0.15146847 -0.55120188 2.3353579
-0.051055584 -0.55050689 2.3375256
0.050594147 -0.55012327 2.3397162
0.15022974 -0.5491429 2.3418708
0.24917953 -0.54901874 2.3440003
0.35086375 -0.54953033 2.346185
0.45061341 -0.55003226 2.3483262
0.54993391 -0.54774314 2.350486
0.6498878 -0.54454923 2.3526621
0.74810797 -0.54144323 2.3548083
0.84861714 -0.53820515 2.3569994
0.94925106 -0.53468692 2.3591988
1.0485461 -0.53063321 2.361372
1.1484559 -0.52626044 2.3635626
1.2500213 -0.52303183 2.3657787
1.3326709 -0.52015972 2.3675835
-1.3158804 -0.44972849 2.311219
-1.2500117 -0.45000377 2.3126342
-1.1510675 -0.45041764 2.3147597
-1.0498737 -0.45084044 2.3169341
-0.94849002 -0.45126444 2.3191123
-0.8489902 -0.45168045 2.32125
-0.74937576 -0.45009726 2.3234086
-0.64944983 -0.44833198 2.3255758
-0.54939604 -0.44874647 2.3277254
-0.44915703 -0.44916174 2.3298781
-0.34873256 -0.4495776 2.3320365
-0.2502203 -0.44998556 2.3341534
-0.15152794 -0.45039448 2.3362732
-0.050551001 -0.45081255 2.3384428
0.050613612 -0.4512316 2.3406179
0.14941166 -0.45019445 2.3427527
0.24927543 -0.44994617 2.3449042
0.35099941 -0.45036542 2.3470895
0.4512265 -0.44928974 2.3492572
0.55076301 -0.449074 2.351402
0.65091753 -0.44948494 2.3535535
0.74911904 -0.44988793 2.3556623
0.84963769 -0.45030043 2.3578205
0.95033973 -0.45071369 2.3599885
1.0485675 -0.45021534 2.3621042
1.1501596 -0.4494077 2.3642986
1.2514135 -0.44982117 2.3664744
1.3334134 -0.45015609 2.368237
-1.3163912 -0.34992382 2.3121154
-1.2504976 -0.35013816 2.3135328
-1.1509846 -0.35007498 2.3156745
-1.0497791 -0.35117018 2.317843
-0.94885951 -0.35111928 2.3200157
-0.84932131 -0.35144335 2.322155
-0.74982899 -0.35151491 2.324296
-0.64969838 -0.34999996 2.3264654
-0.54911226 -0.34899426 2.3286388
-0.44933271 -0.34855038 2.3307908
-0.34886914 -0.3488737 2.3329496
-0.25031838 -0.34919018 2.3350677
-0.15158731 -0.34950781 2.3371909
-0.050570861 -0.34983256 2.3393617
0.050633531 -0.35015729 2.3415368
0.14991134 -0.35047713 2.3436706
0.24937142 -0.35079637 2.3458078
0.35070679 -0.35147381 2.3479826
0.45005324 -0.34963238 2.3501382
0.55016291 -0.3501389 2.352288
0.65031391 -0.34947142 2.3544512
0.7494095 -0.35028389 2.3565753
0.84996736 -0.35060531 2.3587365
0.95115978 -0.35026249 2.360918
1.0494957 -0.34911636 2.363045
1.1489142 -0.34979486 2.3651781
1.2501814 -0.34939986 2.3673613
1.3339328 -0.35001963 2.3691585
-1.3169028 -0.25004169 2.3130136
-1.2509828 -0.25019491 2.314431
-1.1498971 -0.25042987 2.3166051
-1.0486226 -0.25066537 2.3187823
-0.9494614 -0.25037792 2.3214183
-0.84965211 -0.25112772 2.323061
-0.74989182 -0.25135973 2.3252056
-0.64994687 -0.25159204 2.3273542
-0.55032194 -0.25053421 2.3295095
-0.44950503 -0.24995969 2.3316836
-0.34900302 -0.2501913 2.3338449
-0.24865112 -0.24929848 2.3360133
-0.1503533 -0.24905108 2.3381305
-0.050590705 -0.2487728 2.3402805
0.05065342 -0.24900429 2.342459
0.14997032 -0.24923128 2.3445935
0.24946986 -0.24945873 2.3467336
0.34914976 -0.24968633 2.3488758
0.44901335 -0.24991472 2.3510244
0.54905802 -0.25014332 2.353174
0.6492877 -0.2503725 2.3553305
0.74969947 -0.25060213 2.3574889
0.85029685 -0.25083196 2.3596525
0.95063925 -0.25043321 2.3618155
1.0499034 -0.24916092 2.3639636
1.1488991 -0.24938527 2.3660927
1.2496839 -0.25001192 2.3682554
1.3338646 -0.24918476 2.3700745
-1.3174139 -0.15008202 2.3139124
-1.2508521 -0.1497492 2.3153479
-1.1497574 -0.15073457 2.3175142
-1.0490309 -0.15045628 2.3196855
-0.97928154 -0.15490773 2.3442359
-0.8456862 -0.19509135 2.3345072
-0.74692225 -0.19151457 2.3328822
-0.64811343 -0.18834005 2.3318639
-0.5486784 -0.18471329 2.3338912
-0.44803268 -0.18137619 2.3350174
-0.34796727 -0.17811577 2.3364439
-0.24811967 -0.17401958 2.3386788
-0.14866391 -0.16932103 2.3401561
-0.049708012 -0.16585428 2.3424773
0.051561609 -0.16263886 2.3442867
0.15057255 -0.15922485 2.3461998
0.25033715 -0.15580288 2.3484664
0.34991062 -0.15268385 2.3503704
0.4492729 -0.14982106 2.3524139
0.54927063 -0.1505671 2.3540869
0.64953899 -0.1507051 2.3562429
0.74999017 -0.15084332 2.3584034
0.85021955 -0.1511365 2.3605571
0.95072109 -0.14850588 2.3627439
1.0503107 -0.14912699 2.3648815
1.1493459 -0.14926136 2.367013
1.2485586 -0.14939585 2.3691466
1.3328104 -0.14951013 2.3709593
-1.3179265 -0.050044626 2.3148117
-1.2498928 -0.050076269 2.3162756
-1.1487265 -0.050123345 2.3184526
-1.0494393 -0.05016952 2.3205893
-0.98853236 -0.051326897 2.3475506
0.48568112 -0.099682346 2.3542998
0.55293852 -0.050655741 2.3576214
0.64979059 -0.050960012 2.3571558
0.75028098 -0.051006746 2.3593185
0.84857935 -0.050785106 2.3614347
0.94967765 -0.048970915 2.3636277
1.0507191 -0.049015936 2.365803
1.1497933 -0.049060091 2.3679333
1.249045 -0.049104337 2.3700702
1.3333304 -0.04914194 2.3718839
-1.3177924 0.051318869 2.3157368
-1.2497923 0.04968372 2.3171859
-1.149174 0.050149348 2.3193552
-1.0498489 0.050195578 2.3214936
-0.99407262 0.04830382 2.3530364
0.5498299 0.051471733 2.3583548
0.65004843 0.050986905 2.358088
0.75057828 0.051033713 2.3602543
0.84914207 0.048950721 2.3623545
0.95003927 0.048995726 2.3645272
1.0511205 0.049040835 2.3667028
1.1502312 0.049085025 2.3688366
1.2495215 0.04912933 2.3709743
1.3338393 0.049166966 2.3727887
-1.3168892 0.15026651 2.3166561
-1.2488011 0.15036172 2.3181229
-1.1496214 0.15050013 2.3202581
-1.0434966 0.15339214 2.3283665
-0.99854875 0.12179194 2.3546102
0.49958083 0.19710748 2.3869436
0.54671609 0.15094696 2.3587308
0.65030003 0.15088785 2.3590028
0.75086963 0.15102634 2.3611674
0.84947246 0.14903229 2.363272
0.95006108 0.14887054 2.3654363
1.0511587 0.14961316 2.3676188
1.1506801 0.14944127 2.3697593
1.2500089 0.14957628 2.3718989
1.33436 0.14969076 2.3737156
-1.3174018 0.25053933 2.3175581
-1.2492877 0.25069806 2.319025
-1.1500695 0.25092921 2.3211632
-1.0428267 0.25035152 2.3322041
0.49673268 0.25398946 2.3720212
0.55012661 0.25063679 2.3577538
0.65055251 0.25086704 2.3599174
0.75085086 0.24934991 2.3620629
0.84980214 0.24919122 2.3641896
0.94862729 0.24941549 2.3663204
1.0497847 0.24964526 2.3684995
1.1511281 0.24987531 2.3706834
1.2504965 0.250101 2.3728251
1.3348805 0.25029263 2.3746407
-1.3179145 0.35089037 2.3184597
-1.2497752 0.35111281 2.3199289
-1.1505179 0.35143661 2.322068
-1.0468675 0.35028085 2.3335268
0.49232522 0.35314056 2.3673549
0.55033946 0.35060096 2.358669
0.6495226 0.35041994 2.360801
0.75045782 0.34999019 2.3629699
0.85013288 0.34942827 2.3651109
0.9489966 0.34974313 2.3672414
1.0501941 0.35006544 2.3694232
1.1515769 0.35038829 2.3716073
1.2504789 0.34988657 2.3737307
1.3353916 0.34883025 2.3755496
-1.3184274 0.45131946 2.3193622
-1.250344 0.45152152 2.3208296
-1.1509571 0.44992575 2.3229558
-1.0502715 0.44918698 2.334645
0.48871109 0.45188454 2.3649223
0.5505535 0.45064336 2.3595841
0.6484347 0.44967702 2.3616815
0.74959517 0.44932967 2.3638551
0.85046363 0.44974303 2.3660302
0.94936502 0.4501482 2.3681619
1.0484469 0.45055449 2.3702996
1.1498673 0.45097023 2.3724864
1.251976 0.45052794 2.3746791
1.3359123 0.44958833 2.376478
-1.3191314 0.55068403 2.3202515
-1.2506526 0.54999 2.3217192
-1.1513968 0.54849035 2.323842
-1.0546923 0.54853487 2.3358231
0.48478991 0.55143267 2.3649492
0.55076706 0.55076277 2.3604987
0.64963728 0.54984885 2.362618
0.74988639 0.54963058 2.3647754
0.85079402 0.55013621 2.3669508
0.94943607 0.55027133 2.3690746
1.0488465 0.5489881 2.3712037
1.1491984 0.54896539 2.3733635
1.2508014 0.55051988 2.3755651
1.3364347 0.55042452 2.3774064
-1.3192437 0.64913106 2.3211453
-1.2512165 0.64863133 2.3226044
-1.1507044 0.64974701 2.3247781
-1.0577637 0.64866537 2.3375206
0.48148957 0.6517452 2.36412
0.55045611 0.64986712 2.3613946
0.64941531 0.64941108 2.3635209
0.7501778 0.65000844 2.365694
0.85112554 0.65060711 2.3678725
0.95041114 0.65081012 2.3700106
1.0492557 0.64963967 2.3721282
1.1485928 0.65022683 2.3742712
1.2485067 0.64867055 2.3764079
1.335506 0.64985591 2.3782909
-1.3199484 0.74888033 2.3220367
-1.2508236 0.7498641 2.323534
-1.1493769 0.74956971 2.3257153
-1.0560504 0.75585473 2.3416977
-0.99706984 0.79979879 2.3718693
0.47777021 0.75161064 2.3646545
0.55171424 0.75010318 2.3623331
0.64966774 0.74977654 2.364439
0.75038391 0.75037909 2.3666112
0.85144979 0.74901634 2.3687742
0.95046794 0.74969184 2.3709123
1.0496647 0.75036919 2.3730526
1.1490412 0.75104761 2.3751981
1.2489457 0.75003332 2.3773398
1.3353003 0.75016958 2.3792
-1.3202755 0.85004616 2.322952
-1.2499559 0.85002273 2.324465
-1.1485987 0.85097814 2.3266549
-1.0493963 0.85028964 2.3287835
-0.94927424 0.84138769 2.3378921
-0.84961039 0.84542125 2.3400471
-0.74966782 0.84975088 2.3422928
-0.64947063 0.8539893 2.3445337
-0.55134255 0.85672849 2.3470132
-0.45171219 0.86046058 2.3493826
-0.3510578 0.86499536 2.3513334
-0.25050595 0.86925286 2.3538003
-0.15079871 0.87336278 2.3565478
-0.052547365 0.87716949 2.3586771
0.048856765 0.88058048 2.3620763
0.14885871 0.88504308 2.3652804
0.24812694 0.88986397 2.3683622
0.34829894 0.89485794 2.3733091
0.46658 0.85587817 2.3661556
0.5495348 0.84967136 2.3631921
0.64992064 0.85021776 2.3653586
0.74861413 0.85098368 2.3674896
0.84963042 0.84962612 2.3696508
0.95053822 0.85004723 2.3718266
1.0500661 0.84903187 2.3739593
1.1494807 0.84979975 2.376107
1.2490755 0.85056925 2.378258
1.3358223 0.85123909 2.3801308
-1.31891 0.95045668 2.3238945
-1.2485405 0.95107853 2.3254151
-1.1492037 0.9500339 2.3275433
-1.0489211 0.94922477 2.3296943
-0.94949275 0.94950414 2.3318372
-0.84944749 0.95038384 2.3339987
-0.74968475 0.95057678 2.3361464
-0.64879423 0.95003444 2.3383131
-0.54955089 0.94974476 2.3404474
-0.45134714 0.94941664 2.342557
-0.35063168 0.95053166 2.3447359
-0.24988084 0.94983929 2.3468983
-0.15024073 0.95016247 2.3490448
-0.050285935 0.94994998 2.3511946
0.05088947 0.94979203 2.3533721
0.15043722 0.95039243 2.3555174
0.25063226 0.94940162 2.3576663
0.35077795 0.95027298 2.3598292
0.44936341 0.94945329 2.3622572
0.54947889 0.94986373 2.3641033
0.64965665 0.94982517 2.3662577
0.7488997 0.94945294 2.3683908
0.8499614 0.95032847 2.3705747
0.95151556 0.95082134 2.3727648
1.0504757 0.94991755 2.3748872
1.14951 0.94920266 2.3770113
1.2495527 0.94948661 2.3791671
1.3363343 0.95023447 2.3810422
-1.319178 1.0029951 2.324367
-1.2487943 1.0036514 2.3258874
-1.1472878 1.0025837 2.3280625
-1.0495756 1.0034014 2.3301733
-0.94969434 1.0043309 2.3323314
-0.84962773 1.005262 2.3344936
-0.74459445 1.0053333 2.3367553
-0.64893222 1.0050141 2.3388109
-0.54830778 1.0059485 2.3409851
-0.44959915 1.0068651 2.3431177
-0.35070926 1.0077832 2.3452551
-0.24699637 1.0070475 2.3474813
-0.15027399 1.0075191 2.3495672
-0.050837848 1.0084406 2.3517158
0.050901186 1.0093833 2.3539121
0.1520469 1.0099841 2.3560972
0.25069004 1.009102 2.3582098
0.35085914 1.010028 2.3603756
0.44907582 1.0109363 2.3624985
0.54961067 1.0118656 2.36467
0.65255755 1.0117896 2.3668852
0.74907935 1.0115677 2.3689597
0.85016638 1.0125003 2.3711448
0.95143825 1.0134346 2.3733323
1.0507375 1.0143508 2.375479
1.1516333 1.0136307 2.3776431
1.2498655 1.0140357 2.3797615
1.336668 1.0148352 2.3816371
-0.96888942 -0.20107904 2.4452758
-0.97778636 -0.15303612 2.435437
-0.85092616 -0.19294968 2.4356322
-0.75050426 -0.18597916 2.4404573
-0.64939499 -0.17889 2.4359074
-0.5482918 -0.17187543 2.4411962
-0.4485023 -0.16491196 2.4411001
-0.34910792 -0.15795979 2.4388525
-0.25032294 -0.15113451 2.4477994
-0.14921542 -0.14401489 2.4392126
-0.048869815 -0.13708629 2.4488945
0.048498061 -0.13025114 2.4434748
0.14977375 -0.1232031 2.4459403
0.25105175 -0.11619133 2.4532461
0.34902391 -0.10927301 2.4424417
0.44157967 -0.10292774 2.4573722
-0.98825455 -0.050416388 2.4349422
0.49225694 -0.099339128 2.450469
0.51500005 -0.050644495 2.4470673
-0.99531513 0.050676785 2.4360321
0.50846779 0.04947732 2.4496925
-1.0028583 0.15863124 2.4373589
-0.99928927 0.10960837 2.4302971
0.49893722 0.18435887 2.456069
0.50253218 0.1362348 2.4450133
-1.0092102 0.25017035 2.4364696
0.49447778 0.25033775 2.450042
-1.0161533 0.34973168 2.4370568
0.48758629 0.34964374 2.4490824
-1.0231185 0.44976917 2.4371624
0.48058093 0.45061219 2.4480276
-1.0301213 0.55026716 2.4375017
0.47353384 0.55117655 2.450145
-1.0370857 0.65000671 2.4384639
0.46671548 0.64989156 2.4477282
-1.0375526 0.76367188 2.4384902
-0.99345815 0.799523 2.4411099
0.45967969 0.7503708 2.4495881
-0.94399917 0.80298567 2.4395847
-0.85043907 0.80950743 2.4404769
-0.74987066 0.81651491 2.4417903
-0.65002346 0.82347161 2.4432139
-0.54940128 0.83049041 2.4434984
-0.4500778 0.83740938 2.4450221
-0.34969679 0.84440339 2.4463682
-0.24956356 0.85138935 2.4464843
-0.15029241 0.85829949 2.4487507
-0.050152391 0.86529028 2.4483309
0.050233155 0.8722896 2.4490271
0.14999539 0.87925225 2.4488676
0.2506592 0.88627476 2.4490588
0.35002545 0.89321113 2.4486957
0.43982169 0.87009108 2.4490647
0.44754243 0.90017766 2.4274282
0.51363879 -0.04154563 2.5022833
0.50728458 0.049598031 2.5027099
0.49833003 0.17813106 2.5030303
0.50287724 0.11274961 2.5032167
0.49327555 0.25040361 2.5040848
0.48672575 0.34463006 2.503655
0.47888643 0.4567759 2.5051243
0.472792 0.54495978 2.5031281
0.46508515 0.65505993 2.5050447
0.45890883 0.74413747 2.5039353
-0.015768927 0.86729097 2.500607
0.051825535 0.87200308 2.5012
0.15144847 0.87894624 2.502305
0.24917875 0.88575155 2.5041654
0.3498998 0.89278096 2.5040042
0.44149315 0.869353 2.505441
