# .PCD v0.7 - Point Cloud Data file format
VERSION 0.7
FIELDS x y z
SIZE 4 4 4
TYPE F F F
COUNT 1 1 1
WIDTH 387
HEIGHT 1
VIEWPOINT 0 0 0 1 0 0 0
POINTS 387
DATA ascii
-1.314817 -0.54005212 2.3057013
-1.2518026 -0.53963745 2.3071554
-1.1505265 -0.53885895 2.3094902
-1.0496387 -0.53940237 2.3118198
-0.95061135 -0.53993595 2.3141065
-0.85138822 -0.5404703 2.3163981
-0.75046474 -0.53953207 2.3187242
-0.64819521 -0.53947282 2.3210835
-0.54826564 -0.53799778 2.3233864
-0.44834974 -0.53844911 2.3256931
-0.34812936 -0.53898489 2.3280079
-0.2498038 -0.53741008 2.3302734
-0.15128557 -0.5379346 2.3325472
-0.050473247 -0.5384717 2.3348751
0.050540447 -0.53900951 2.3372076
0.14925338 -0.53918505 2.3394856
0.24965231 -0.53704965 2.3417974
0.3505564 -0.53638089 2.3441241
0.45024917 -0.53690755 2.346426
0.55013871 -0.53743547 2.3487322
0.64956009 -0.53716004 2.3510258
0.75050592 -0.53637296 2.3533535
0.85098535 -0.53690135 2.3556731
0.94951963 -0.5374198 2.3579493
1.0503941 -0.53795087 2.3602777
1.151159 -0.53562355 2.3625979
1.2505766 -0.5347414 2.3648889
1.3325952 -0.53516936 2.3667831
-1.3146913 -0.44861618 2.3054814
-1.2510951 -0.44890171 2.3069487
-1.1504188 -0.44935408 2.3092737
-1.0495408 -0.44980723 2.3116035
-0.95052242 -0.45025218 2.3138895
-0.85130811 -0.45069784 2.3161802
-0.74982375 -0.45115367 2.3185227
-0.64813566 -0.45161051 2.3208704
-0.54840696 -0.45005557 2.3231685
-0.44796053 -0.44873989 2.3254828
-0.34809661 -0.44876269 2.3277884
-0.24978082 -0.44920009 2.3300574
-0.15127173 -0.44963858 2.3323317
-0.050468553 -0.45008734 2.3346598
0.050535794 -0.45053688 2.3369904
0.1496309 -0.45097798 2.3392787
0.24839829 -0.45055965 2.3415561
0.3505246 -0.44975948 2.3439121
0.45020816 -0.45020106 2.3462133
0.5503298 -0.45036989 2.3485236
0.65016341 -0.44896814 2.3508236
0.75043702 -0.44941023 2.3531392
0.85090774 -0.44985333 2.3554597
0.94943303 -0.45028773 2.3577335
1.0502985 -0.45073244 2.3600624
1.1510513 -0.44943085 2.3623836
1.2504649 -0.44948363 2.3646784
1.332476 -0.4498437 2.3665719
-1.3145536 -0.34888738 2.3052404
-1.2509644 -0.34910968 2.3067086
-1.1502984 -0.34946129 2.3090327
-1.0494316 -0.34981355 2.3113618
-0.95042253 -0.35015959 2.3136468
-0.85121876 -0.35050628 2.3159366
-0.75137281 -0.35119683 2.318243
-0.6497249 -0.35087633 2.3205876
-0.54826415 -0.35156453 2.3229306
-0.44861686 -0.35026875 2.3252265
-0.35015079 -0.35015956 2.3274987
-0.25161722 -0.34865481 2.3297689
-0.1512557 -0.34874809 2.3320854
-0.050463233 -0.34909642 2.3344116
0.050530434 -0.34944546 2.3367438
0.14961509 -0.34978724 2.3390312
0.24889548 -0.35013008 2.3413224
0.35048807 -0.35047993 2.3436689
0.45016122 -0.35082492 2.345969
0.54979706 -0.35091361 2.3482678
0.65009528 -0.34939638 2.350579
0.7503584 -0.34974104 2.3528938
0.85081887 -0.35008535 2.3552129
0.9493345 -0.35042322 2.3574867
1.0501881 -0.35076922 2.3598158
1.1517372 -0.3498008 2.3621569
1.2503345 -0.34932533 2.3644302
1.3323362 -0.34960514 2.3663235
-1.3144166 -0.24917948 2.3049996
-1.2508339 -0.24933821 2.3064673
-1.1501777 -0.24958935 2.3087914
-1.0493208 -0.24984108 2.3111191
-0.95032299 -0.25008795 2.313405
-0.85112941 -0.25033557 2.3156934
-0.75173974 -0.25058368 2.3179884
-0.65007514 -0.25083724 2.3203344
-0.54820651 -0.25109148 2.3226864
-0.4482148 -0.25134102 2.3249941
-0.35011476 -0.25158575 2.3272588
-0.25205898 -0.25000349 2.3295186
-0.15124001 -0.24998073 2.3318443
-0.050458036 -0.25023022 2.3341706
0.05093278 -0.24993749 2.3365095
0.14959916 -0.24861778 2.3387833
0.24886884 -0.24886139 2.3410742
0.3504509 -0.24911064 2.3434198
0.45011318 -0.24935518 2.3457208
0.54997295 -0.24960014 2.3480246
0.65002781 -0.24984567 2.3503339
0.75028056 -0.25009167 2.3526483
0.85073006 -0.25033808 2.3549671
0.94923478 -0.25057986 2.3572407
1.0500782 -0.25082719 2.3595686
1.150615 -0.24979991 2.3618855
1.2502027 -0.24918783 2.3641825
1.3321964 -0.24938737 2.366075
-1.3142796 -0.14949246 2.3047593
-1.2507031 -0.14958754 2.306227
-1.1500578 -0.14973827 2.3085501
-1.0492101 -0.1498892 2.3108778
-0.95022351 -0.15003747 2.3131618
-0.85104012 -0.15018584 2.3154509
-0.75166106 -0.15033476 2.3177443
-0.65000659 -0.15048684 2.3200912
-0.54814821 -0.15063941 2.3224418
-0.44816759 -0.15078904 2.3247497
-0.35007775 -0.15093601 2.327014
-0.25179523 -0.15108295 2.3292811
-0.15122424 -0.15123349 2.3316038
-0.050452825 -0.15138441 2.3339295
0.050120886 -0.15102513 2.3362491
0.1495837 -0.14957675 2.3385396
0.24884295 -0.14972332 2.3408322
0.35041457 -0.1498733 2.3431747
0.45006651 -0.1500203 2.3454752
0.54991579 -0.15016791 2.3477798
0.64995986 -0.15031563 2.3500893
0.75020266 -0.15046331 2.3524032
0.85064149 -0.15061165 2.3547208
0.94913548 -0.15075707 2.3569944
1.0499687 -0.15090594 2.3593216
1.1515014 -0.15020147 2.3616617
1.2500713 -0.14907148 2.3639345
1.3320569 -0.14919087 2.3658268
-1.3141422 -0.049826186 2.3045185
-1.2505724 -0.049857922 2.3059859
-1.1499373 -0.049908139 2.3083074
-1.0464673 -0.049007032 2.3207617
-0.95005167 -0.087885417 2.3219182
-0.85054189 -0.087913565 2.3224502
-0.75134498 -0.088010482 2.3228257
-0.64998466 -0.087970912 2.3236282
-0.54823214 -0.088003695 2.3242037
-0.44820446 -0.087964758 2.3249178
-0.35005471 -0.088039696 2.3268602
-0.25177869 -0.088125512 2.3291287
-0.15121436 -0.088213302 2.3314488
-0.050449483 -0.088301316 2.3337748
0.050839148 -0.088301703 2.3365431
0.14946999 -0.086624622 2.3464859
0.24889544 -0.086658195 2.3471572
0.35049683 -0.086692914 2.347858
0.46572316 -0.065253228 2.3531363
0.54985833 -0.050756272 2.3475354
0.64989203 -0.050806198 2.3498442
0.75012434 -0.050856195 2.3521576
0.85055232 -0.050906315 2.3544748
0.94903642 -0.050955441 2.3567479
1.0498582 -0.051005736 2.3590746
1.1503778 -0.050244652 2.3613913
1.2499409 -0.048976056 2.3636868
1.331917 -0.049015243 2.3655784
-1.3140051 0.049819253 2.3042781
-1.2504421 0.049850941 2.3057451
-1.149817 0.049901184 2.3080661
-1.0461731 0.049996339 2.3226523
0.48671213 0.050403353 2.3589272
0.54980004 0.050749063 2.3472862
0.64982283 0.050798997 2.3495936
0.75004423 0.050848968 2.3519073
0.85046208 0.0508991 2.3542244
0.94893515 0.050948214 2.3564963
1.0497466 0.050998516 2.3588231
1.1504567 0.050691534 2.3611474
1.2498128 0.048969351 2.3634443
1.3317803 0.049008559 2.365335
-1.3138676 0.14944392 2.3040373
-1.2503119 0.14953893 2.3055041
-1.1496967 0.14968958 2.3078258
-1.0462304 0.1499085 2.3227303
0.48647124 0.14992881 2.3586299
0.54974264 0.1501189 2.3470414
0.64975512 0.15026663 2.3493478
0.74996603 0.15041448 2.3516614
0.85037297 0.15056255 2.3539777
0.94883597 0.15070786 2.35625
1.0496362 0.15085675 2.3585756
1.1509415 0.15062298 2.3609133
1.2496811 0.14902316 2.3631961
1.3316405 0.1491424 2.3650873
-1.3137307 0.24904776 2.3037968
-1.2501811 0.24920617 2.3052628
-1.149577 0.24945723 2.3075845
-1.0462027 0.24982713 2.3228295
0.48638314 0.24971022 2.357693
0.54968542 0.24946782 2.3467975
0.64968777 0.24971309 2.3491046
0.74988765 0.24995893 2.3514163
0.85028392 0.25020504 2.3537323
0.94873679 0.25044659 2.3560042
1.0495267 0.2506938 2.3583293
1.1505146 0.25094146 2.3606584
1.2494607 0.2491523 2.3629465
1.3315004 0.24925543 2.3648398
-1.3135939 0.34863076 2.3035567
-1.2500503 0.34885255 2.3050225
-1.1494566 0.34920406 2.3073425
-1.0462649 0.34975067 2.3227696
0.48626563 0.3506428 2.3568633
0.54962718 0.35090908 2.3465471
0.649221 0.35071805 2.3488464
0.7498095 0.34948292 2.3511708
0.85019481 0.34982696 2.3534863
0.94863755 0.35016501 2.355758
1.0494171 0.35051024 2.3580823
1.1503947 0.35085627 2.3604119
1.2495055 0.34915715 2.3627033
1.3313609 0.34934726 2.3645916
-1.3135289 0.4484995 2.303314
-1.2499193 0.44847828 2.3047819
-1.1502585 0.44842103 2.3070822
-1.0472044 0.44996557 2.3225477
0.48602322 0.44999036 2.3563039
0.54957002 0.45021683 2.3463042
0.64995718 0.45009148 2.3486202
0.74973154 0.4489857 2.3509266
0.85010642 0.44942805 2.3532414
0.95042318 0.45010316 2.3555543
1.0511749 0.45007274 2.3578794
1.1502737 0.45075005 2.3601651
1.2488773 0.44962969 2.3624427
1.3312218 0.44941851 2.3643434
-1.3132454 0.55009431 2.3030717
-1.2502738 0.54931086 2.3045261
-1.1512721 0.54862344 2.306813
-1.0481402 0.54938072 2.3225219
0.48594007 0.54959232 2.3553944
0.54951245 0.54950309 2.3460591
0.64948291 0.55004311 2.3483653
0.74965167 0.55058444 2.3506749
0.84961677 0.55058861 2.3529823
0.95058185 0.5495494 2.3553147
1.0513425 0.55009133 2.3576384
1.1501541 0.5506233 2.3599172
1.2495593 0.54956889 2.3622136
1.3310819 0.54946846 2.3640954
-1.3131766 0.65140158 2.3028257
-1.2491647 0.65093386 2.3043041
-1.1514341 0.64866167 2.3065658
-1.0482453 0.64924419 2.3224521
0.48582011 0.65032971 2.3548074
0.54945403 0.65088135 2.3458095
0.64897037 0.65006649 2.3481085
0.74957341 0.65004551 2.35043
0.85033602 0.65011799 2.3527553
0.95048249 0.64920664 2.3550692
1.0512333 0.64984739 2.3573918
1.1500329 0.65047526 2.3596706
1.2484993 0.65001446 2.3619435
1.3309423 0.64949739 2.3638475
-1.3130397 0.75090057 2.3025861
-1.2495227 0.75137895 2.30405
-1.1511968 0.74970353 2.3063235
-1.0482277 0.74904346 2.3225336
0.48553777 0.74980426 2.354176
0.54939747 0.75012618 2.3455663
0.64978462 0.74937725 2.3478837
0.74949539 0.74948609 2.3501852
0.84983855 0.75022388 2.3524992
0.95014566 0.75070572 2.3548126
1.0511231 0.74958169 2.3571455
1.1499122 0.75030684 2.3594234
1.2494202 0.74990493 2.361721
1.3308028 0.74950534 2.3636
-1.312903 0.85037905 2.302345
-1.2493923 0.85091972 2.3038096
-1.1504564 0.85105121 2.3060927
-1.048432 0.84899187 2.3224761
0.48549163 0.84951204 2.3533211
0.54933983 0.84935021 2.3453226
0.64927876 0.85018432 2.3476264
0.74918127 0.8507638 2.3499305
0.84974974 0.84974122 2.3522539
0.95052588 0.85030532 2.354578
1.0510126 0.84929657 2.3568993
1.1497921 0.85011697 2.3591769
1.2483203 0.85030711 2.36145
1.3306637 0.84949255 2.3633516
-1.3127688 0.94776487 2.3021104
-1.2492648 0.94836771 2.303575
-1.1507875 0.94930232 2.3058448
-1.0470423 0.94557053 2.3142922
-0.94927967 0.94829601 2.3236334
-0.85002756 0.94901466 2.3257401
-0.75052691 0.94977623 2.3273845
-0.65140307 0.94980049 2.3293946
-0.55119556 0.94938731 2.3316426
-0.45130098 0.95019227 2.3333879
-0.35125023 0.95092744 2.3353555
-0.25176665 0.95220929 2.3354115
-0.15079318 0.9516868 2.3370748
-0.050304435 0.95248449 2.3389401
0.05036046 0.95328361 2.3408878
0.14996232 0.95414567 2.3430612
0.24928772 0.95254707 2.3451703
0.3500841 0.95373827 2.3470414
0.45057994 0.9523496 2.3484235
0.5492816 0.95066452 2.3450727
0.64876616 0.95014358 2.3473699
0.74957985 0.95014715 2.3496962
0.84966129 0.94923812 2.3520081
0.95018262 0.95017338 2.3543258
1.0504041 0.95029706 2.3566384
1.1496724 0.94990641 2.3589301
1.2490829 0.95016259 2.361223
1.330524 0.9494583 2.3631046
-0.6222598 1.0002118 2.3179169
-0.55164391 1.0009143 2.3195448
-0.45179138 1.0019076 2.3218467
-0.35174051 1.0029029 2.3241529
-0.24464093 1.0032461 2.3266237
-0.15104155 1.0028037 2.3287847
-0.050391778 1.0038025 2.3311048
0.050458778 1.0048038 2.3334301
0.1515107 1.005807 2.3357594
0.25065291 1.0046873 2.3380499
0.34999034 1.005671 2.3403401
0.44952121 1.0066568 2.342634
0.54924887 1.0076448 2.344933
0.65197581 1.0070715 2.3473048
0.74929243 1.0075121 2.3495495
0.8496086 1.0085038 2.3518622
0.95012373 1.0094973 2.3541791
1.0535122 1.0095741 2.3565648
1.1496004 1.0093466 2.3587828
1.2485541 1.0103226 2.3610642
1.3304378 1.0111302 2.3629518
-1.0195305 -0.039381571 2.4287364
-0.63752735 -0.077745095 2.4657345
-0.54913527 -0.077494778 2.4577959
-0.4500781 -0.077214278 2.4488993
-0.34951133 -0.07692948 2.4398673
-0.24967828 -0.076646775 2.4309006
-0.1505816 -0.076366119 2.4219995
-0.050027095 -0.076080896 2.4129536
0.047619868 -0.075803787 2.4041646
0.48045462 -0.037472881 2.4466863
-1.0198259 0.050340351 2.4294405
0.48021799 0.050118223 2.4451087
-1.020148 0.15032934 2.4298992
0.47972572 0.1518573 2.452718
-1.020483 0.25001255 2.430968
0.47942597 0.25009149 2.4524369
-1.0208091 0.34976578 2.4316275
0.47914815 0.34975046 2.451019
-1.0210352 0.44784686 2.4282174
0.47887507 0.44928932 2.4494169
-1.0213431 0.54982382 2.4278007
0.47858426 0.54916477 2.4485347
-1.0216715 0.650199 2.4284904
0.47831205 0.64980084 2.4467421
-1.0219989 0.75019664 2.4291751
0.47803587 0.7503019 2.4451444
-1.0223353 0.85027486 2.4302504
0.47775343 0.8502633 2.4438834
-1.0167038 0.91603315 2.4295285
-0.95098263 0.92121214 2.4287553
-0.85102659 0.92151999 2.4296758
-0.75016218 0.92183101 2.4306943
-0.64989924 0.92215341 2.4370427
-0.55017674 0.92246109 2.4381576
-0.45003414 0.92276895 2.4387989
-0.34981263 0.92307782 2.4397016
-0.24849154 0.92337847 2.4357765
-0.15012869 0.9236784 2.4354591
-0.050170153 0.92398614 2.4362686
0.050192524 0.92429531 2.4370844
0.15100561 0.92461884 2.4432151
0.25022855 0.92492551 2.4444873
0.34999552 0.92523289 2.4454296
0.44540983 0.92328054 2.4452908
