# .PCD v0.7 - Point Cloud Data file format
VERSION 0.7
FIELDS x y z
SIZE 4 4 4
TYPE F F F
COUNT 1 1 1
WIDTH 392
HEIGHT 1
VIEWPOINT 0 0 0 1 0 0 0
POINTS 392
DATA ascii
-1.3159199 -0.52470261 2.3112881
-1.2500974 -0.52504402 2.3127909
-1.1518258 -0.52384108 2.3150349
-1.0500649 -0.52399331 2.3173585
-0.9487192 -0.52451664 2.3196743
-0.84826791 -0.52429682 2.3219671
-0.74957371 -0.52345133 2.3242207
-0.64970762 -0.52396476 2.3265014
-0.54982686 -0.52247518 2.3287816
-0.44938722 -0.52289486 2.3310754
-0.34893149 -0.52340966 2.33337
-0.25037727 -0.5239144 2.3356211
-0.15163137 -0.52442026 2.3378761
-0.050588124 -0.52493793 2.3401842
0.051538363 -0.52173072 2.3425143
0.14998162 -0.52174044 2.3447628
0.24950252 -0.52224624 2.3470352
0.34921512 -0.52275288 2.3493125
0.44912285 -0.52326059 2.3515947
0.54922354 -0.52376938 2.3538806
0.64931601 -0.52225196 2.3561656
0.75001073 -0.52266484 2.3584652
0.84855348 -0.5231635 2.3607163
0.94943374 -0.52154517 2.3630188
1.0505098 -0.52205455 2.3653274
1.1496273 -0.52255434 2.3675911
1.2485429 -0.52112019 2.3698492
1.3332748 -0.52134323 2.3717842
-1.3158921 -0.44973588 2.3112385
-1.2500706 -0.45002842 2.3127422
-1.1511865 -0.45046791 2.3150012
-1.050043 -0.45091742 2.3173115
-0.94869971 -0.45136771 2.3196256
-0.84969461 -0.45112997 2.3218873
-0.7491557 -0.44961998 2.3241818
-0.64969432 -0.44850457 2.3264515
-0.54963446 -0.44894505 2.3287377
-0.44937813 -0.44938654 2.3310282
-0.34892413 -0.44982868 2.3333216
-0.25037196 -0.45026273 2.3355727
-0.15162832 -0.4506973 2.3378282
-0.050587073 -0.45114243 2.3401358
0.050245143 -0.45002028 2.3424373
0.14997858 -0.44991297 2.3447146
0.2494975 -0.450349 2.346988
0.34972695 -0.44975337 2.3492758
0.44911343 -0.4491052 2.3515456
0.54921192 -0.44954199 2.3538334
0.64950705 -0.44997916 2.3561225
0.74999559 -0.45041773 2.358417
0.84853601 -0.45084736 2.3606675
0.94941401 -0.44915843 2.3629704
1.0504878 -0.44959739 2.3652794
1.1496038 -0.45002759 2.3675435
1.2489097 -0.45045874 2.3698106
1.3332484 -0.45082486 2.371737
-1.3158551 -0.34978482 2.3111742
-1.250035 -0.35001233 2.3126776
-1.1511543 -0.35035416 2.3149362
-1.0500138 -0.35070348 2.3172462
-0.94867295 -0.35105407 2.3195601
-0.84920245 -0.35139787 2.3218327
-0.74993128 -0.35123387 2.3240988
-0.64967614 -0.34999135 2.3263872
-0.54908895 -0.34935305 2.3286843
-0.44936478 -0.34857985 2.3309605
-0.3489143 -0.34892279 2.3332553
-0.2503649 -0.34925923 2.3355057
-0.1516239 -0.34959665 2.3377609
-0.050585609 -0.34994164 2.3400688
0.05065231 -0.35028732 2.3423812
0.14997451 -0.35062659 2.34465
0.24949029 -0.35096633 2.3469217
0.34867999 -0.35031509 2.3491869
0.44910082 -0.34952953 2.3514798
0.54919654 -0.34986976 2.3537664
0.6494875 -0.35020992 2.3560562
0.74997413 -0.35055113 2.3583519
0.85038769 -0.35065949 2.3606441
0.95125633 -0.34934723 2.362947
1.0504577 -0.3494404 2.3652129
1.1495714 -0.34977469 2.367476
1.2488745 -0.35010967 2.3697438
1.3332103 -0.35039425 2.3716707
-1.3158182 -0.24983935 2.3111098
-1.2499995 -0.25000188 2.3126123
-1.1511225 -0.25024599 2.3148701
-1.049984 -0.25049564 2.3171811
-0.94864643 -0.25074577 2.319495
-0.84917849 -0.25099137 2.3217669
-0.74951631 -0.25123751 2.3240423
-0.64965814 -0.25148404 2.3263228
-0.55013168 -0.25079 2.3285954
-0.44935286 -0.24987854 2.3308976
-0.34890446 -0.25012454 2.3331907
-0.25035781 -0.25036576 2.3354404
-0.15132548 -0.2488407 2.3377008
-0.050584167 -0.2487466 2.3400021
0.050650813 -0.24899255 2.3423135
0.14996997 -0.2492336 2.3445828
0.24948327 -0.24947524 2.3468542
0.34918836 -0.24971716 2.3491321
0.44908825 -0.24995977 2.3514142
0.54918092 -0.2502028 2.3537002
0.64947069 -0.25044626 2.3559892
0.74995309 -0.25069019 2.3582847
0.85063344 -0.25093454 2.3605838
0.95150822 -0.24905069 2.3628862
1.0504285 -0.24928884 2.3651447
1.1495389 -0.24952747 2.3674088
1.2488388 -0.24976653 2.3696768
1.3331728 -0.24996948 2.3716025
-1.3157812 -0.14989947 2.3110445
-1.249964 -0.14999689 2.312547
-1.1510894 -0.15014344 2.3148053
-1.0499549 -0.15029326 2.3171146
-0.94861901 -0.15044324 2.3194299
-0.84915376 -0.15059078 2.3217001
-0.74949479 -0.15073828 2.323977
-0.64963973 -0.15088615 2.326257
-0.54958838 -0.15103441 2.328542
-0.44934019 -0.15118307 2.3308311
-0.34889495 -0.15133171 2.3331258
-0.25035077 -0.15147769 2.3353758
-0.15191782 -0.14988117 2.3376229
-0.050582834 -0.14966543 2.3399367
0.050649364 -0.14981337 2.3422487
0.14996603 -0.14995845 2.3445165
0.24947639 -0.15010388 2.3467891
0.3491784 -0.15024951 2.3490665
0.44907561 -0.15039544 2.3513474
0.54916584 -0.15054163 2.3536341
0.64945167 -0.15068811 2.3559246
0.74993211 -0.15083487 2.3582191
0.85060966 -0.15098187 2.3605182
0.95156723 -0.14908956 2.3628225
1.0503997 -0.14914307 2.3650794
1.1495062 -0.14928588 2.3673415
1.2488037 -0.14942881 2.3696105
1.3331356 -0.14955024 2.3715363
-1.3157442 -0.049965236 2.3109789
-1.2499297 -0.049997721 2.3124831
-1.1510574 -0.050046552 2.3147407
-1.0447733 -0.047067363 2.3228292
-0.9485985 -0.073130533 2.3193789
-0.84913647 -0.073202185 2.3216505
-0.74947852 -0.07327392 2.323926
-0.64962584 -0.073345818 2.3262064
-0.54957652 -0.073417857 2.3284914
-0.44933054 -0.073490061 2.3307805
-0.34888723 -0.073562369 2.3330746
-0.25034547 -0.073633328 2.3353245
-0.15161207 -0.073704399 2.3375802
-0.050581735 -0.073777169 2.3398867
0.050648302 -0.073850043 2.3421986
0.14996271 -0.073921584 2.3444664
0.24947102 -0.073993206 2.3467391
0.34917101 -0.074064992 2.3490162
0.45374176 -0.069219619 2.3528783
0.54915023 -0.050886054 2.3535678
0.64943326 -0.050935566 2.3558588
0.74991077 -0.050985154 2.3581529
0.85058606 -0.051034883 2.3604507
0.95136559 -0.04905241 2.3627515
1.0503703 -0.04900289 2.3650129
1.149474 -0.049049839 2.3672762
1.248768 -0.049096808 2.3695426
1.3330978 -0.049136732 2.3714685
-1.3157073 0.049963355 2.3109143
-1.2498938 0.049995899 2.312417
-1.1510243 0.050044667 2.3146749
-1.0402131 0.050072625 2.3279066
0.49663353 0.049744487 2.3658323
0.54913455 0.050884116 2.3535001
0.64941478 0.050933626 2.3557899
0.74988937 0.050983224 2.3580847
0.85056108 0.051032908 2.360384
0.9511866 0.049242128 2.3626823
1.0503402 0.049001131 2.3649466
1.1494428 0.049047984 2.3672097
1.248734 0.049094986 2.3694775
1.3330604 0.049134891 2.371403
-1.3156704 0.14988631 2.3108497
-1.2498593 0.14998378 2.3123517
-1.1509922 0.15013017 2.3146098
-1.0402373 0.15021461 2.3280196
0.49631101 0.15325031 2.3699093
0.54911929 0.15052833 2.3534346
0.64939636 0.15067486 2.3557243
0.74986845 0.15082149 2.3580191
0.85053718 0.15096869 2.3603172
0.95163649 0.14925531 2.362627
1.050312 0.14913011 2.3648803
1.1494101 0.14927277 2.3671441
1.2486981 0.14941569 2.369411
1.333023 0.14953715 2.3713357
-1.3156332 0.24980368 2.3107836
-1.2498231 0.24996614 2.3122866
-1.1509598 0.25021017 2.3145454
-1.0412915 0.25034949 2.3259499
0.49605739 0.25016361 2.3732154
0.54910392 0.2501671 2.3533685
0.64937901 0.25041041 2.3556595
0.74984717 0.25065428 2.3579524
0.85051298 0.25089872 2.3602514
0.95106882 0.2493977 2.3625484
1.0502815 0.2492533 2.3648143
1.1493776 0.24949184 2.3670766
1.2486629 0.24973083 2.3693442
1.3329856 0.24993376 2.3712692
-1.315596 0.3497155 2.3107193
-1.2497888 0.34994289 2.3122227
-1.1509272 0.35028461 2.3144789
-1.0414069 0.35052261 2.3258381
0.49590692 0.3500317 2.3732603
0.54908836 0.34980017 2.3533015
0.64936078 0.3501406 2.3555918
0.74982613 0.35048181 2.3578866
0.85048944 0.35082322 2.3601849
0.95164579 0.34939551 2.3624964
1.0502522 0.34937102 2.3647478
1.1493454 0.34970504 2.3670104
1.248628 0.35004044 2.3692772
1.3329477 0.3503246 2.3712025
-1.3155594 0.44962153 2.3106549
-1.2497535 0.4499141 2.3121569
-1.1508939 0.45035321 2.3144147
-1.0413749 0.45063084 2.3259103
0.49580976 0.45038369 2.3721364
0.54907316 0.44942769 2.3532364
0.64934224 0.44986501 2.355525
0.74980545 0.45030314 2.35782
0.85046542 0.45074198 2.3601186
0.950912 0.44962457 2.3624129
1.0502228 0.44948307 2.3646808
1.149313 0.4499132 2.3669431
1.248593 0.45034409 2.3692102
1.3329098 0.45071009 2.3711352
-1.3155222 0.54952186 2.3105893
-1.2497184 0.54987937 2.3120921
-1.1508623 0.55041623 2.3143489
-1.0414417 0.55074519 2.3259122
0.49570173 0.55070198 2.3716133
0.54858708 0.55044967 2.353158
0.64932454 0.54958367 2.3554597
0.74978375 0.55011904 2.3577528
0.85044193 0.55065519 2.3600521
0.95169538 0.54960424 2.3623638
1.0501931 0.54958951 2.3646145
1.14928 0.55011553 2.3668766
1.2485571 0.55064231 2.369143
1.3328733 0.54895413 2.3710704
-1.3154851 0.64941698 2.3105242
-1.2496831 0.64983916 2.3120267
-1.1508306 0.65047359 2.3142838
-1.0414578 0.65079439 2.3259265
0.49555439 0.64989686 2.371124
0.54951805 0.6500302 2.3531141
0.6493054 0.649297 2.3553934
0.74976313 0.6499294 2.3576875
0.85041767 0.65056264 2.3599856
0.95081884 0.64973354 2.3622787
1.0501636 0.64969021 2.3645475
1.1492475 0.65031201 2.3668096
1.2485225 0.65093458 2.3690767
1.3328358 0.64932805 2.3710022
-1.3154482 0.74930596 2.3104596
-1.2496481 0.74979323 2.3119617
-1.1507975 0.75052577 2.3142185
-1.041433 0.75091809 2.3260608
0.49545571 0.74957412 2.370542
0.54902643 0.75039577 2.3530371
0.64877915 0.75034875 2.3553143
0.74974197 0.74973381 2.357621
0.85039359 0.75046474 2.3599181
0.95168221 0.74970102 2.362232
1.0501333 0.74978656 2.3644812
1.1492152 0.7505036 2.3667419
1.2482449 0.74937516 2.3690057
1.3327979 0.74969614 2.3709359
-1.315411 0.84918976 2.3103936
-1.2496127 0.84974176 2.3118963
-1.1507648 0.85057139 2.3141532
-1.0414598 0.85111564 2.3262179
0.49529928 0.84974015 2.3702278
0.54901081 0.85000116 2.3529711
0.64978307 0.85001516 2.3552725
0.74972117 0.8495329 2.3575542
0.85036999 0.85036129 2.3598526
0.95073438 0.8498199 2.3621445
1.050104 0.84987462 2.3644135
1.1491832 0.85068786 2.3666761
1.2486883 0.8496393 2.3689492
1.33276 0.85005897 2.3708689
-1.3153743 0.94906807 2.3103299
-1.2495774 0.9496851 2.311831
-1.1507326 0.95061177 2.3140881
-1.0444876 0.9487595 2.3223472
-0.94901615 0.96563786 2.3358135
-0.84911644 0.96641833 2.3368843
-0.74954367 0.9670195 2.3384788
-0.64963919 0.96764874 2.3402123
-0.55006915 0.96694988 2.3422475
-0.44955698 0.96722233 2.3440504
-0.34925187 0.96784645 2.345705
-0.25009558 0.96827817 2.3475621
-0.15234476 0.96896172 2.3470504
-0.050372381 0.96891421 2.3480589
0.050422184 0.96963477 2.3497908
0.14988686 0.97012752 2.3518364
0.24919184 0.97069997 2.3533628
0.34942868 0.9696492 2.3556039
0.45443726 0.96523172 2.3584409
0.54899567 0.94960058 2.3529041
0.64925027 0.95052433 2.3551941
0.7493394 0.94980025 2.3574805
0.85034561 0.95025182 2.3597867
0.95166093 0.94977522 2.3620999
1.0500753 0.94995856 2.3643479
1.1486505 0.95004988 2.3665984
1.248417 0.94964457 2.3688774
1.3327224 0.95041621 2.3708024
-1.0000309 1.0000309 2.3174973
-0.94831198 1.0005403 2.3186779
-0.84887916 1.0015198 2.3209481
-0.74925166 1.0025014 2.3232224
-0.64942878 1.0034847 2.3255014
-0.54480273 1.0026625 2.3278909
-0.44919428 1.003359 2.330075
-0.34878135 1.004346 2.3323667
-0.25026938 1.0053146 2.3346157
-0.14647102 1.0051574 2.3369861
-0.050566338 1.0051712 2.3391764
0.050632905 1.006164 2.3414867
0.14991705 1.007138 2.3437531
0.2516256 1.0076907 2.3460751
0.34906471 1.0069764 2.3483012
0.44892928 1.0079544 2.3505812
0.54898649 1.0089341 2.3528657
0.64923984 1.0099155 2.3551545
0.75143743 1.0091788 2.3574891
0.8503316 1.0097588 2.3597472
0.95117104 1.0107441 2.3620491
1.0500561 1.0117097 2.3643064
1.151322 1.0117708 2.3666189
1.2483953 1.0115141 2.3688362
1.3326994 1.0123364 2.3707607
-1.0058355 -0.024158692 2.4379704
-0.41770622 -0.046907865 2.4795206
-0.34988251 -0.046795372 2.4735749
-0.24870886 -0.04662757 2.4647048
-0.15048529 -0.04646467 2.4560935
-0.050739381 -0.04629923 2.4473488
0.050495017 -0.046131801 2.4384987
0.15100163 -0.045966163 2.4297428
0.25078911 -0.045801722 2.4210505
0.34986508 -0.045638442 2.4124198
0.48135692 -0.028351596 2.4376354
-1.0059675 0.050161634 2.4380939
0.49418265 0.050011154 2.4488201
-1.0061517 0.15011682 2.4385817
0.49394011 0.14780347 2.4520347
-1.0062114 0.24990439 2.4336193
0.49363637 0.25013649 2.457576
-1.0062782 0.34867752 2.4290493
0.49348947 0.35008627 2.4564507
-1.006442 0.44998592 2.4285283
0.4933385 0.44996643 2.455503
-1.0066336 0.55036438 2.4293358
0.49317884 0.55024236 2.4549055
-1.0068114 0.65041375 2.4295311
0.49301946 0.65042943 2.4543114
-1.0069951 0.75014234 2.4300137
0.49286476 0.75013208 2.4535363
-1.0071764 0.84989226 2.4304109
0.49271831 0.84976095 2.4524171
-1.0068005 0.92943603 2.4320247
-0.95033062 0.95215476 2.4349499
-0.85065752 0.95232582 2.4359267
-0.75021732 0.95249861 2.4361618
-0.65011442 0.95267034 2.4366844
-0.54958624 0.95284641 2.4421449
-0.45025128 0.95301783 2.4431701
-0.35001457 0.95318967 2.4436126
-0.25005779 0.95336223 2.4441226
-0.14859316 0.95353377 2.4405689
-0.049999494 0.95370108 2.4391937
0.051360916 0.95387769 2.4428473
0.15007283 0.95404929 2.4461169
0.25000349 0.95422113 2.4461622
0.34972656 0.95439363 2.4466031
0.45768702 0.94774759 2.448256
