# .PCD v0.7 - Point Cloud Data file format
VERSION 0.7
FIELDS x y z
SIZE 4 4 4
TYPE F F F
COUNT 1 1 1
WIDTH 532
HEIGHT 1
VIEWPOINT 0 0 0 1 0 0 0
POINTS 532
DATA ascii
-1.3053176 -0.91802573 2.2746689
-1.2472427 -0.91728288 2.2760186
-1.1493522 -0.91538334 2.2782929
-1.049849 -0.91631472 2.2806101
-0.9508943 -0.91547084 2.2829118
-0.84947753 -0.91585153 2.2852726
-0.75139058 -0.91348898 2.2875509
-0.64980453 -0.91386491 2.289916
-0.55115038 -0.91365409 2.2922108
-0.45061424 -0.91364723 2.2945521
-0.34973797 -0.91243118 2.2968967
-0.2568149 -0.91129929 2.299057
-1.3052398 -0.85035294 2.2745326
-1.2504853 -0.85005474 2.2758067
-1.1507399 -0.84923255 2.278126
-1.0497881 -0.85052121 2.2804775
-0.94960254 -0.8505134 2.2828093
-0.85040164 -0.84995449 2.2851169
-0.75007868 -0.84900022 2.2874494
-0.64976776 -0.84986758 2.2897866
-0.54925299 -0.85073638 2.2921271
-0.45013809 -0.8508845 2.2944348
-0.35017142 -0.84916443 2.2967575
-0.25442463 -0.84822792 2.2989833
-1.3051238 -0.74988341 2.2743309
-1.2504953 -0.75030303 2.2756033
-1.1509907 -0.75081074 2.2779202
-1.049695 -0.74978924 2.2802749
-0.95048767 -0.74971187 2.282583
-0.85010952 -0.74925685 2.2849193
-0.75001365 -0.75002277 2.28725
-0.64971077 -0.75078821 2.2895858
-0.54873055 -0.75076437 2.2919354
-0.45099387 -0.74956608 2.2942085
-0.3496334 -0.74893904 2.2965653
-0.25010449 -0.74889493 2.2988815
-1.3050081 -0.64943171 2.2741284
-1.2503844 -0.64979482 2.2754002
-1.1513256 -0.65021586 2.2777064
-1.0496013 -0.64907473 2.2800717
-0.94992042 -0.64973551 2.282393
-0.85003519 -0.65039778 2.2847195
-0.74994779 -0.6510613 2.2870507
-0.64923531 -0.65022612 2.289392
-0.5496245 -0.64956802 2.2917087
-0.45050874 -0.64891058 2.2940145
-0.3496027 -0.64957547 2.2963648
-0.24849135 -0.6502412 2.2987182
-0.19549535 -0.63701457 2.2999249
-1.3048919 -0.54899776 2.2739265
-1.2502732 -0.54930472 2.2751987
-1.1510082 -0.54986268 2.2775095
-1.0495095 -0.55043352 2.2798731
-0.94983757 -0.55099332 2.2821934
-0.84948313 -0.55022037 2.2845283
-0.74988073 -0.55005658 2.2868445
-0.65002006 -0.54914725 2.2891684
-0.54910678 -0.54911578 2.2915163
-0.45046914 -0.54966593 2.2938132
-0.34957218 -0.55022901 2.2961626
-0.24846946 -0.55079305 2.2985168
-0.19165699 -0.54632431 2.2998297
-1.3047781 -0.45063072 2.2737291
-1.250164 -0.45088264 2.275001
-1.1541957 -0.45452154 2.2779586
-1.0494497 -0.46435633 2.2804582
-0.94969141 -0.46467808 2.2823906
-0.85047239 -0.46387187 2.284359
-0.74911237 -0.46258089 2.2869885
-0.64952785 -0.46204373 2.289324
-0.54906917 -0.46238086 2.2913592
-0.45043457 -0.46284083 2.293638
-0.34903425 -0.46280608 2.296031
-0.2484511 -0.46172023 2.2983444
-0.18767637 -0.46029577 2.299747
-1.3046625 -0.35023195 2.2735274
-1.2500528 -0.35042793 2.2747982
-1.1701097 -0.35032916 2.2782209
-1.3045468 -0.24985109 2.2733254
-1.2499425 -0.24999081 2.2745967
-1.1698898 -0.25028569 2.2785156
-1.304431 -0.14948817 2.2731237
-1.2498311 -0.14957172 2.274394
-1.1701086 -0.14972502 2.2786441
-1.3043151 -0.049142893 2.2729218
-1.2497208 -0.049170386 2.2741928
-1.1710842 -0.049921285 2.2779031
-1.3042017 0.049137197 2.2727242
-1.2496122 0.049164664 2.2739942
-1.1715618 0.049244329 2.277611
-1.3042568 0.1475704 2.2725229
-1.2497519 0.1497543 2.2737863
-1.1717337 0.14966331 2.2778039
-1.3059905 0.24973416 2.2722738
-1.2514114 0.24987373 2.2735441
-1.1718048 0.25010028 2.2781019
-1.3058746 0.3500064 2.2720726
-1.2513006 0.35020199 2.2733414
-1.1726618 0.34953293 2.2774999
-1.3057586 0.45026085 2.2718713
-1.2511898 0.45051259 2.27314
-1.1732925 0.45068774 2.2769883
-1.3056428 0.55049753 2.2716694
-1.2515525 0.55008459 2.2729292
-1.161144 0.5564394 2.2767558
-1.0503849 0.5810836 2.2793081
-0.95084476 0.58173954 2.2818894
-0.84986264 0.58375925 2.2827752
-0.74929053 0.58461511 2.2850485
-0.65093052 0.58518296 2.2875659
-0.55209595 0.58463407 2.2900956
-0.45199871 0.58545804 2.2920103
-0.35128057 0.58685875 2.2938058
-0.25028208 0.58745992 2.2961557
-0.14907788 0.58806217 2.2985094
-0.092048489 0.58928919 2.2998345
-1.3055271 0.6507166 2.2714674
-1.2504894 0.65032685 2.2727489
-1.1497875 0.64970613 2.2750943
-1.0504261 0.65036565 2.2774053
-0.95108587 0.64922827 2.2797196
-0.84905839 0.64964867 2.2820938
-0.74908483 0.65031087 2.2844191
-0.65095299 0.65096039 2.2867012
-0.5501225 0.65020812 2.2890494
-0.45020834 0.64997768 2.2913754
-0.35126108 0.6488148 2.2936802
-0.25026831 0.64947909 2.2960291
-0.14906967 0.65014517 2.2983842
-0.089302123 0.65440959 2.2997653
-1.3054538 0.74991584 2.2712669
-1.2508583 0.74929166 2.2725394
-1.1496861 0.75006676 2.2748923
-1.0503329 0.75082916 2.2772026
-0.95056248 0.74977911 2.2795272
-0.84906143 0.75023937 2.281888
-0.74901938 0.74902701 2.284219
-0.65089589 0.74977505 2.2865009
-0.55052561 0.75054091 2.2888355
-0.44972774 0.75104249 2.2911806
-0.35122985 0.74999607 2.2934759
-0.25040394 0.74886763 2.2958241
-0.14905655 0.74946415 2.2981811
-0.084963284 0.75261998 2.2996669
-1.3052555 0.85005826 2.2710681
-1.2507478 0.84953094 2.2723382
-1.1495833 0.85041046 2.2746902
-1.050241 0.84922427 2.277005
-0.95069426 0.850088 2.2793193
-0.85033387 0.85048962 2.2816539
-0.75043863 0.85018772 2.2839811
-0.65133685 0.84953213 2.2862878
-0.55047733 0.84943873 2.2886353
-0.44991186 0.85030705 2.2909744
-0.35119826 0.85115886 2.2932699
-0.25015095 0.85004407 2.2956233
-0.1490435 0.84876668 2.2979796
-0.080675855 0.85142446 2.2995651
-1.3051914 0.94104683 2.270884
-1.2506452 0.94157249 2.2721522
-1.1494893 0.94254708 2.2745049
-1.0501553 0.94145501 2.2768188
-0.95061636 0.94241214 2.2791326
-0.85087585 0.943371 2.2814529
-0.75093102 0.94433218 2.283777
-0.65021807 0.94416183 2.2861207
-0.55043101 0.94420022 2.2884429
-0.44987407 0.9451648 2.2907815
-0.35116884 0.94611192 2.2930765
-0.25011253 0.9469949 2.2954264
-0.14903069 0.94598299 2.2977822
-0.076464429 0.94824231 2.2994659
-0.20721734 -0.91175729 2.3002121
-0.15107431 -0.91174465 2.3015184
-0.049803052 -0.91113323 2.3038743
0.049165156 -0.91172779 2.3061788
0.1497435 -0.90880907 2.3085136
0.24981882 -0.90972638 2.3108449
0.34915742 -0.9087649 2.3131547
0.45057628 -0.9094798 2.3155167
0.55208534 -0.90784901 2.3178756
0.65004152 -0.90712118 2.3201542
0.74538976 -0.90700531 2.3223729
0.85031009 -0.90684879 2.3248148
0.94586366 -0.90724295 2.3270395
1.0522684 -0.90479672 2.32951
1.1477031 -0.90522069 2.3317318
1.2490083 -0.90415835 2.3340886
1.3235799 -0.90483087 2.3358252
-0.20525932 -0.85626429 2.3001449
-0.14926761 -0.85004419 2.3014348
-0.049800411 -0.85090005 2.3037522
0.050171386 -0.85114086 2.3060791
0.14973553 -0.84845424 2.3083906
0.24980552 -0.84931111 2.3107216
0.3500779 -0.8501696 2.3130572
0.45055321 -0.85102975 2.3153963
0.55086488 -0.85077155 2.3177302
0.6500079 -0.84855366 2.320034
0.74898374 -0.84939694 2.3223398
0.85026765 -0.85025984 2.3246987
0.94964045 -0.85110629 2.3270118
1.0488497 -0.85030353 2.3293207
1.1505362 -0.84843355 2.3316824
1.250168 -0.84998196 2.3340046
1.3235159 -0.85007954 2.3357122
-0.20185971 -0.77352315 2.3000553
-0.14925441 -0.75046158 2.3012323
-0.049796 -0.75121647 2.3035488
0.049991295 -0.75040925 2.3058689
0.14972223 -0.74856985 2.3081865
0.24978346 -0.74932611 2.3105161
0.35004699 -0.75008363 2.3128529
0.45051342 -0.75084198 2.3151917
0.55102217 -0.75143337 2.3175323
0.65043861 -0.74896586 2.3198419
0.74891704 -0.748909 2.3221331
0.85019177 -0.74966991 2.3244913
0.94955575 -0.75041616 2.3268058
1.0491192 -0.7511636 2.3291235
1.1506972 -0.75018805 2.3314862
1.2514598 -0.74927801 2.3338289
1.3233969 -0.74901402 2.3355036
-0.14661039 -0.65168482 2.3010929
-0.049791604 -0.65155017 2.3033457
0.049503624 -0.64927471 2.3056517
0.14970905 -0.64870381 2.3079832
0.24976145 -0.64935845 2.3103125
0.35001576 -0.6500147 2.3126478
0.45047337 -0.65067244 2.3149865
0.55113405 -0.65133119 2.317332
0.64940161 -0.65072268 2.3196166
0.74885046 -0.64843941 2.3219259
0.85011607 -0.6490978 2.3242853
0.94947141 -0.64974403 2.3265984
1.0490251 -0.6503914 2.3289165
1.1509027 -0.65105397 2.3312891
1.2503579 -0.65044153 2.3336027
1.3232819 -0.65007007 2.3352985
-0.14228533 -0.55216891 2.3009903
-0.049279328 -0.55084532 2.3031523
0.049695786 -0.54848057 2.3054514
0.14969587 -0.54885477 2.3077786
0.24973927 -0.54940873 2.3101094
0.34998524 -0.54996377 2.3124423
0.45043346 -0.55052006 2.3147812
0.55108523 -0.55107778 2.3171256
0.64983714 -0.55162424 2.3194249
0.74914527 -0.5496307 2.3217318
0.85004109 -0.54854369 2.3240783
0.94938701 -0.54908985 2.3263912
1.0489327 -0.54963678 2.3287091
1.1507999 -0.55019671 2.3310807
1.250746 -0.55074584 2.3334081
1.3231663 -0.55114394 2.3350945
-1.1394275 -0.42185625 2.3483009
-1.0497851 -0.43175834 2.3496511
-0.94828635 -0.43077636 2.3450482
-0.84901649 -0.42979333 2.3506517
-0.7523284 -0.42885149 2.3491893
-0.64972913 -0.42784366 2.3512793
-0.55000192 -0.42688096 2.3457422
-0.44754681 -0.42587337 2.3483169
-0.35179168 -0.42493483 2.3495023
-0.25013626 -0.42393336 2.3527205
-0.14066108 -0.45438385 2.3107572
-0.05003608 -0.45434439 2.3106711
0.049867693 -0.45246926 2.3146219
0.1496581 -0.4526875 2.3156643
0.24971934 -0.452784 2.3168299
0.35057959 -0.45055553 2.3163924
0.45039347 -0.4503859 2.3145773
0.55103612 -0.4508419 2.3169198
0.64977956 -0.45128918 2.3192191
0.74836975 -0.45131421 2.3215137
0.85020614 -0.44983089 2.3238804
0.94930243 -0.4484534 2.3261843
1.0488394 -0.44890016 2.3285017
1.1506972 -0.44935736 2.3308735
1.2506342 -0.44980574 2.3332009
1.3230479 -0.45013079 2.3348866
-1.1483203 -0.35008329 2.3474967
0.37045947 -0.35012388 2.3235672
0.45035374 -0.35026926 2.3143723
0.5509879 -0.35062361 2.3167148
0.64972192 -0.35097179 2.3190141
0.74865413 -0.35132045 2.3213165
0.8496604 -0.35142416 2.3236675
0.95006907 -0.34944287 2.3260007
1.0499636 -0.35021454 2.3283277
1.1505952 -0.3485359 2.3306658
1.2505226 -0.34888387 2.3329916
1.3229296 -0.34913594 2.3346775
-1.1493595 -0.24995244 2.3498549
0.37032193 -0.25003788 2.3218002
0.45031378 -0.25017035 2.3141673
0.55093843 -0.25042355 2.3165097
0.6496644 -0.25067198 2.3188069
0.74858713 -0.25092104 2.3211105
0.84981734 -0.25117579 2.3234675
0.95125306 -0.25143096 2.3258288
1.0503784 -0.25115007 2.3281348
1.1504941 -0.24983251 2.330462
1.2504134 -0.25008181 2.3327882
1.322814 -0.25026247 2.3344731
-1.1503886 -0.14983356 2.3517907
0.37001169 -0.15010601 2.3206742
0.45027405 -0.15008923 2.3139627
0.55089009 -0.15024111 2.3163044
0.64960653 -0.15039022 2.3186021
0.74852067 -0.15053943 2.3209047
0.8497417 -0.15069248 2.3232613
0.95116848 -0.15084547 2.3256216
1.0506814 -0.15099573 2.3279386
1.1503938 -0.15114629 2.3302591
1.2503042 -0.15129718 2.3325846
1.3226986 -0.15140642 2.3342695
-1.1512749 -0.050024159 2.3477063
0.36899275 -0.049270984 2.3222671
0.45023394 -0.050025839 2.3137579
0.55084121 -0.050076444 2.3160985
0.64991176 -0.049825646 2.3184052
0.7487933 -0.050468337 2.3207076
0.84966642 -0.050226822 2.3230536
0.95108384 -0.050277825 2.3254154
1.0505871 -0.050327897 2.3277307
1.1502912 -0.050378121 2.3300509
1.250193 -0.050428372 2.3323765
1.3225801 -0.050464809 2.3340611
-1.1522349 0.049986843 2.3467185
0.36827025 0.049951535 2.3225584
0.45019421 0.050019935 2.3135529
0.5507921 0.050070539 2.3158934
0.65159422 0.050121251 2.3182395
0.75049436 0.050171025 2.3205421
0.8495909 0.050220892 2.3228478
0.95099926 0.050271906 2.325207
1.0504942 0.050321974 2.3275237
1.1501889 0.050372098 2.3298445
1.2500814 0.050422397 2.3321686
1.3224627 0.0504588 2.3338523
-1.1532749 0.1500576 2.3491385
0.36792412 0.15002151 2.3212659
0.45015436 0.15004796 2.3133483
0.55074364 0.15019982 2.3156891
0.65153658 0.15035187 2.3180342
0.75042778 0.15050113 2.3203356
0.84951532 0.15065068 2.3226416
0.9509148 0.1508037 2.3250015
1.0504007 0.15095396 2.3273165
1.1500862 0.15110448 2.3296349
1.2499692 0.15125519 2.33196
1.3223443 0.1513644 2.3336446
-1.1543014 0.2501224 2.3509922
0.36782825 0.24997906 2.3196678
0.45011452 0.25005829 2.3131435
0.550695 0.25031123 2.3154824
0.65147865 0.25056481 2.3178282
0.75036103 0.25081348 2.3201299
0.84943986 0.25106275 2.3224344
0.95083016 0.25131786 2.3247948
1.0503073 0.25156799 2.3271089
1.1495755 0.25026089 2.3294218
1.2498605 0.24996985 2.3317556
1.3222286 0.25015038 2.333441
-1.1552658 0.35042998 2.3500764
0.36716697 0.35050285 2.3196619
0.45007479 0.35005081 2.3129387
0.55064589 0.3504051 2.3152781
0.65142095 0.35075992 2.3176236
0.75029409 0.35110787 2.3199241
0.84936416 0.35145691 2.3222299
0.95022345 0.35096121 2.3245773
1.0502157 0.35006863 2.3269062
1.1502879 0.34882841 2.3292377
1.249752 0.34866723 2.3315537
1.322113 0.34891903 2.3332365
-1.1561494 0.44982529 2.3460813
0.36608458 0.44992521 2.321614
0.45003504 0.45002589 2.3127344
0.55059743 0.45048106 2.315074
0.65136337 0.45093721 2.3174181
0.75022721 0.4513846 2.3197179
0.84881377 0.45115349 2.3220134
0.95118988 0.44930723 2.3243995
1.0501239 0.44855201 2.3267035
1.1497828 0.44899908 2.3290224
1.2496397 0.44944677 2.3313446
1.3219951 0.44977131 2.3330283
-1.1481701 0.54434419 2.3488338
-1.0521718 0.568277 2.3516777
-0.9497593 0.56927299 2.3494067
-0.84914201 0.57024723 2.3451889
-0.74998182 0.57122427 2.3485479
-0.64991057 0.57221133 2.352411
-0.5512656 0.57316965 2.3497329
-0.44763958 0.57417446 2.3459747
-0.35027999 0.57512891 2.3471408
-0.25027108 0.5761162 2.3513558
-0.1521014 0.57707721 2.3518808
-0.046162587 0.5834173 2.3251424
0.049929447 0.58466625 2.3262262
0.14924257 0.58420056 2.3315573
0.24950755 0.58484268 2.3350928
0.35790637 0.55525792 2.3212519
0.4499951 0.54998326 2.3125291
0.55054832 0.55053943 2.3148685
0.65130538 0.55109662 2.3172133
0.75016117 0.55164361 2.3195124
0.84961039 0.5494768 2.321831
0.95057976 0.54856706 2.3241837
1.0500311 0.54911298 2.3264968
1.1496799 0.54966033 2.3288145
1.2495283 0.55020821 2.331136
1.3218766 0.5506056 2.3328202
-0.039863788 0.64989793 2.3009253
0.049800999 0.6514535 2.3030088
0.14933962 0.64969486 2.3053296
0.24947469 0.64861178 2.307662
0.34961393 0.64926648 2.3099914
0.4499552 0.64992273 2.3123255
0.55049986 0.65058005 2.3146648
0.65124774 0.65123862 2.3170061
0.74960637 0.65108556 2.3192973
0.84922576 0.64843625 2.3216205
0.95049548 0.64901036 2.3239765
1.0499374 0.6496563 2.3262897
1.1495782 0.65030348 2.3286071
1.2494171 0.65095204 2.330929
1.3217596 0.65142184 2.332612
-0.035464693 0.74924636 2.3008256
0.049796671 0.75097215 2.3028059
0.14994843 0.75110734 2.3051374
0.24916534 0.74868846 2.307451
0.34958288 0.74908721 2.3097868
0.44991553 0.74984437 2.3121209
0.55045062 0.75060332 2.3144579
0.65119022 0.75136304 2.3168018
0.75005215 0.74992788 2.3191056
0.84906554 0.74867654 2.3214123
0.95041108 0.74943632 2.3237696
1.049844 0.7501809 2.3260827
1.1494757 0.75092846 2.3283999
1.2487961 0.75078285 2.3307111
1.3216441 0.75012028 2.3324082
-0.031155372 0.84853679 2.3007236
0.049792241 0.85047448 2.3026037
0.14951043 0.85133123 2.3049226
0.24920623 0.84951341 2.3072467
0.34955207 0.84889114 2.3095827
0.44987568 0.84974873 2.3119164
0.55040234 0.85060787 2.3142548
0.65113235 0.8514688 2.316597
0.75019419 0.84912872 2.3189077
0.84899038 0.84898078 2.3212063
0.9503265 0.8498432 2.3235631
1.0497502 0.85068893 2.3258755
1.1490215 0.85111082 2.328186
1.2497098 0.84935743 2.3305318
1.3215286 0.84880161 2.3322046
-0.026926763 0.94581801 2.3006239
0.049787976 0.94788659 2.3024046
0.14949766 0.94884074 2.3047237
0.2499378 0.94882846 2.3070612
0.34952128 0.94867706 2.3093796
0.44983566 0.94963539 2.3117118
0.55035335 0.95059544 2.3140492
0.65107471 0.95155787 2.3163898
0.75012761 0.94859195 2.3187015
0.84891498 0.94926918 2.3210001
0.95024228 0.95023316 2.3233562
1.0496567 0.95117837 2.3256691
1.1493307 0.94994104 2.3279917
1.2490872 0.94888031 2.3303146
1.3214108 0.94956499 2.3319969
0.74986261 1.0005028 2.3185909
0.84887594 1.0014962 2.320893
0.95019817 1.0025128 2.3232491
1.0496083 1.0035105 2.3255608
1.1530763 1.0026435 2.3279707
1.2490274 1.0034139 2.3302021
1.3213468 1.0041381 2.3318837
-1.1407526 -0.42152277 2.4111845
-1.0422529 -0.431546 2.4117401
-0.95150489 -0.43065226 2.4147086
-0.85059732 -0.42965177 2.4209826
-0.74691659 -0.42864636 2.4172978
-0.64917564 -0.42768049 2.4219584
-0.54973346 -0.42671928 2.417063
-0.45903024 -0.42583168 2.4175003
-0.34821835 -0.42472106 2.4297018
-0.25012887 -0.42377362 2.424572
-0.15040416 -0.42281044 2.4193389
-0.049345665 -0.42180902 2.4253178
0.050392326 -0.42081681 2.4330153
0.15086724 -0.41984695 2.427408
0.25501254 -0.41882426 2.429347
0.32956004 -0.41661605 2.4303162
-1.1498365 -0.34994626 2.4128263
0.35024241 -0.35026297 2.4299912
-1.1508675 -0.25018364 2.4149892
0.34929633 -0.24665387 2.4268789
-1.1518019 -0.15517198 2.4150238
0.34825262 -0.1504178 2.4310706
-1.1527939 -0.045413423 2.4112806
0.34728503 -0.055374283 2.4325004
-1.1537466 0.049981885 2.4119117
0.34624192 0.050383449 2.4326458
-1.1547798 0.15006511 2.4140737
0.3453933 0.15082097 2.4266834
-1.1557145 0.24504639 2.4141076
0.34433514 0.25502625 2.4281309
-1.1567413 0.35320407 2.4125288
0.34338331 0.34758651 2.4299321
-1.1576576 0.45032653 2.4108779
0.34224859 0.45083356 2.4350727
-1.1519792 0.54197037 2.413151
-1.0417449 0.56851923 2.4137888
-0.94973421 0.56941605 2.4125493
-0.85014069 0.57039875 2.4165163
-0.75020474 0.57138574 2.4208944
-0.65099752 0.57236505 2.4250436
-0.55072635 0.57333338 2.4196641
-0.45029905 0.57430428 2.4148252
-0.35082817 0.57528627 2.4189539
-0.25101659 0.57627141 2.4230967
-0.14555125 0.57730114 2.4225495
-0.050173894 0.57823306 2.4222283
0.050288606 0.57922471 2.4263816
0.15036318 0.58021188 2.4302464
0.25003648 0.58119625 2.4346421
0.33097428 0.56126684 2.4289382
