# .PCD v0.7 - Point Cloud Data file format
VERSION 0.7
FIELDS x y z
SIZE 4 4 4
TYPE F F F
COUNT 1 1 1
WIDTH 529
HEIGHT 1
VIEWPOINT 0 0 0 1 0 0 0
POINTS 529
DATA ascii
-1.3070196 -0.9288888 2.2812166
-1.2509837 -0.9280659 2.2824781
-1.1505483 -0.92826676 2.2847433
-1.0508219 -0.92703724 2.2869885
-0.95070958 -0.92597085 2.2892449
-0.85049802 -0.92688674 2.2915084
-0.75084853 -0.92625469 2.2937539
-0.64880884 -0.92619836 2.2960556
-0.55152768 -0.92490077 2.2982466
-0.48747081 -0.92315072 2.2996869
-1.3068982 -0.85071796 2.2810044
-1.2497768 -0.85084414 2.2822938
-1.1504412 -0.84997541 2.2845314
-1.0509118 -0.84910476 2.2867746
-0.95062441 -0.84958982 2.2890387
-0.85042042 -0.85042953 2.2912998
-0.7500183 -0.85127115 2.2935674
-0.64966524 -0.84970701 2.2958257
-0.55067426 -0.84879684 2.2980566
-0.48276147 -0.84666598 2.2995834
-1.306742 -0.74993956 2.2807302
-1.2501806 -0.75002849 2.2820084
-1.1503034 -0.74904084 2.28426
-1.0505062 -0.74978012 2.2865109
-0.95051187 -0.75052029 2.2887676
-0.85031998 -0.75126201 2.2910306
-0.74984902 -0.75001705 2.2932923
-0.6494202 -0.74869913 2.2955544
-0.55060959 -0.74933749 2.2977853
-0.47674015 -0.74789429 2.299448
-1.3065856 -0.64918506 2.2804587
-1.2497582 -0.6495502 2.2817416
-1.1501679 -0.65019029 2.2839892
-1.0503827 -0.6508317 2.2862425
-0.94994193 -0.65079802 2.2885065
-0.8502183 -0.65005255 2.2907541
-0.74991924 -0.64871359 2.2930133
-0.64926136 -0.64927036 2.2952847
-0.55054444 -0.64990073 2.2975142
-0.47059497 -0.64870083 2.2993135
-1.3064324 -0.55051023 2.2801914
-1.2496103 -0.55081975 2.2814736
-1.1496097 -0.55077124 2.2837274
-1.050257 -0.5498454 2.2859685
-0.95073545 -0.54974377 2.2882109
-0.85011607 -0.54886734 2.2904789
-0.74974883 -0.54941016 2.2927439
-0.6491847 -0.54995394 2.2950144
-0.55047923 -0.55048782 2.2972422
-0.46462464 -0.54947692 2.2991755
-1.306276 -0.44980365 2.279918
-1.2494607 -0.45005667 2.2812006
-1.1492928 -0.44947782 2.2836325
-1.0501647 -0.47566625 2.285763
-0.94925511 -0.47481844 2.2886457
-0.8500374 -0.47470662 2.2907109
-0.74969745 -0.47501993 2.2925851
-0.64912724 -0.4754813 2.2948103
-0.55043012 -0.47594315 2.2970386
-0.46010372 -0.47603446 2.2990756
-1.3065289 -0.35158506 2.2796421
-1.2498342 -0.34893417 2.2809155
-1.1479205 -0.34973088 2.2836318
-1.3079935 -0.25051159 2.2793322
-1.2511942 -0.25065237 2.2806127
-1.1477815 -0.25088927 2.2835267
-1.307837 -0.14987876 2.2790592
-1.2510444 -0.14996307 2.2803409
-1.1478567 -0.15008441 2.2833583
-1.3076805 -0.049269933 2.2787867
-1.250895 -0.049297627 2.2800672
-1.1477203 -0.04936596 2.2832513
-1.3075271 0.049262233 2.2785187
-1.250748 0.049289938 2.2798007
-1.1492256 0.049196918 2.2824869
-1.3073711 0.14982322 2.2782466
-1.2505982 0.14990751 2.2795265
-1.1493714 0.15000884 2.2822685
-1.3072143 0.2503604 2.2779739
-1.2504483 0.25050098 2.2792559
-1.1491644 0.25073782 2.2821848
-1.3070613 0.34882227 2.2777064
-1.2503012 0.34901851 2.2789865
-1.149174 0.34948757 2.2820468
-1.3069053 0.44931161 2.2774346
-1.2501519 0.4495641 2.2787142
-1.1492425 0.45003137 2.2818866
-1.3067487 0.54977709 2.2771623
-1.250002 0.5500859 2.2784445
-1.1496811 0.5500716 2.2811985
-1.050833 0.57184213 2.2830546
-0.94911915 0.57235593 2.2854147
-0.8490954 0.57293528 2.28773
-0.75117725 0.57164693 2.2900457
-0.65034318 0.57210326 2.292356
-0.55020505 0.57428777 2.2942266
-0.45097679 0.57510883 2.2963948
-0.34995472 0.57567942 2.2986727
-0.29462478 0.57930428 2.299911
-1.3065925 0.65021837 2.27689
-1.2501807 0.65018457 2.2781627
-1.1504239 0.64917105 2.2804151
-1.0507938 0.64981037 2.2826614
-0.95053035 0.6501168 2.2849216
-0.85053325 0.65142369 2.287173
-0.75051218 0.6499244 2.2894344
-0.65068734 0.64983433 2.2916853
-0.54969418 0.6488955 2.2939653
-0.45093665 0.64952517 2.2961931
-0.34992364 0.65016925 2.2984691
-0.28981367 0.65593529 2.2998099
-1.3064362 0.75063586 2.2766182
-1.2493691 0.75063658 2.277905
-1.1502867 0.74974477 2.280144
-1.0510437 0.75000137 2.2823806
-0.95085692 0.74916595 2.2846425
-0.85084569 0.74990499 2.2868965
-0.75063777 0.75064397 2.2891545
-0.64984512 0.75087935 2.2914286
-0.54962808 0.75006598 2.2936907
-0.45088351 0.7487269 2.2959208
-0.34988213 0.74946952 2.2981977
-0.28384629 0.75343043 2.2996762
-1.3062834 0.84898072 2.276351
-1.2495568 0.84945732 2.2776301
-1.150148 0.85029286 2.2798707
-1.0501598 0.85062474 2.2821238
-0.95074332 0.84991288 2.2843683
-0.85122758 0.84944934 2.2866151
-0.75054967 0.84953129 2.2888861
-0.65015429 0.85037112 2.2911472
-0.54956174 0.85121214 2.2934146
-0.45082942 0.84997195 2.2956452
-0.34984073 0.8487466 2.2979257
-0.27786255 0.85173261 2.299541
-1.3061396 0.94115824 2.2761018
-1.2494198 0.94168663 2.2773793
-1.1500214 0.94261277 2.2796173
-1.0504262 0.94354087 2.2818618
-0.95063639 0.94447029 2.2841117
-0.85010535 0.94406784 2.2863789
-0.75046504 0.94427556 2.2886286
-0.65008068 0.94520861 2.2908888
-0.54949957 0.94614404 2.2931552
-0.45077696 0.94706178 2.2953792
-0.34980032 0.94593251 2.2976604
-0.2718547 0.94851238 2.299412
-0.43598935 -0.92474902 2.3008525
-0.34851307 -0.92524123 2.3028269
-0.24979588 -0.92443001 2.3050508
-0.14856601 -0.92388827 2.3073335
-0.050806962 -0.9232052 2.3095362
0.049991049 -0.92260176 2.3118079
0.15010354 -0.92350394 2.3140678
0.2496005 -0.92278051 2.3163111
0.35179266 -0.92162561 2.3186131
0.4506439 -0.92145556 2.320842
0.55041027 -0.92082638 2.3230906
0.64939618 -0.92171198 2.3253264
0.74965507 -0.92107719 2.327585
0.85025382 -0.91939002 2.3298507
0.94875586 -0.91978216 2.3320732
1.0493648 -0.91897666 2.3343403
1.1493131 -0.91986477 2.3365972
1.2485936 -0.91922492 2.338835
1.3241396 -0.91719705 2.3405333
-0.43146908 -0.85127538 2.3007529
-0.34848201 -0.85048348 2.3026218
-0.24915586 -0.85131133 2.3048646
-0.14969304 -0.84971553 2.3071041
-0.049921736 -0.84880817 2.3093519
0.04998675 -0.84963709 2.3116076
0.15009059 -0.85046774 2.3138683
0.25039014 -0.85129988 2.316133
0.35095966 -0.84986639 2.3183968
0.45157772 -0.84878439 2.3206642
0.55036354 -0.8496002 2.3228943
0.64934134 -0.85041761 2.3251295
0.7506206 -0.85125399 2.3274162
0.84989238 -0.85006815 2.3296516
0.94969481 -0.84886062 2.3318992
1.0492779 -0.84951055 2.3341472
1.1492175 -0.85033202 2.3364038
1.2491865 -0.85097718 2.3386612
1.324033 -0.84965795 2.3403451
-0.42541748 -0.75203156 2.3006155
-0.348441 -0.75082678 2.30235
-0.24912643 -0.75155652 2.3045912
-0.14991729 -0.74900573 2.3068223
-0.049915787 -0.74885964 2.3090773
0.049980778 -0.74959105 2.3113329
0.15007263 -0.75032395 2.3135929
0.25036061 -0.75105816 2.3158569
0.35037217 -0.75111389 2.3181126
0.45181754 -0.74868423 2.3203945
0.55029786 -0.74906504 2.3226178
0.64926308 -0.74978614 2.3248508
0.75053054 -0.75052333 2.3271379
0.84988028 -0.75124627 2.32938
0.94925267 -0.75005031 2.3316181
1.0496217 -0.74920452 2.3338797
1.1490798 -0.74921346 2.3361239
1.2491994 -0.74993753 2.3383834
1.3238777 -0.75047803 2.3400698
-0.41931814 -0.65320003 2.3004832
-0.34839979 -0.65119159 2.3020773
-0.24864283 -0.65111703 2.304327
-0.14975785 -0.64848071 2.3065503
-0.049909871 -0.6489346 2.3088036
0.049974822 -0.64956826 2.311059
0.15005472 -0.65020335 2.3133175
0.25033069 -0.65083945 2.3155804
0.35080284 -0.65147662 2.3178492
0.45152754 -0.64993459 2.3201158
0.55023211 -0.64855468 2.3223393
0.64918602 -0.6491785 2.3245735
0.7504409 -0.64981705 2.3268583
0.84977889 -0.65044296 2.3291013
0.94930977 -0.65107065 2.3313475
1.0493101 -0.64987475 2.3335998
1.1496646 -0.65069199 2.3358657
1.2491343 -0.6488328 2.338105
1.3237184 -0.64921212 2.3397875
-0.4142203 -0.55670047 2.3003325
-0.34923938 -0.55108106 2.3017838
-0.24936153 -0.54953223 2.3040326
-0.14958209 -0.54849827 2.3062799
-0.049903944 -0.5490334 2.3085291
0.049968917 -0.54956961 2.3107843
0.15003698 -0.55010659 2.3130429
0.25030088 -0.55064499 2.3153059
0.35076103 -0.55118406 2.3175721
0.45106882 -0.5513013 2.3198352
0.55063736 -0.54941517 2.3220768
0.64910817 -0.54859519 2.3242955
0.75035119 -0.54913467 2.3265805
0.84967691 -0.54966378 2.3288221
0.94919521 -0.55019391 2.3310683
1.0510298 -0.55073643 2.3333671
1.1509361 -0.55126864 2.3356216
1.2488135 -0.54977769 2.3378248
1.3235623 -0.55007929 2.3395126
-1.1022029 -0.42772487 2.3484156
-1.0504485 -0.4542315 2.3446593
-0.95327646 -0.45350724 2.3485491
-0.85052019 -0.45275295 2.3487389
-0.74763513 -0.45199174 2.3508608
-0.65001553 -0.45127246 2.3518353
-0.54912978 -0.45054343 2.3478482
-0.43800285 -0.45841429 2.3311863
-0.35043576 -0.46903226 2.3126826
-0.24966852 -0.46725634 2.3145456
-0.14907813 -0.46650195 2.3184073
-0.049929675 -0.46621314 2.3207221
0.049953412 -0.46639407 2.321537
0.1500276 -0.46652845 2.3226006
0.25029972 -0.4667137 2.3233309
0.35482204 -0.46290675 2.3266809
0.45136419 -0.45135716 2.3195674
0.54963923 -0.45108062 2.3217833
0.64927125 -0.44985968 2.3240275
0.75026166 -0.44847617 2.3263018
0.84957516 -0.44890821 2.3285437
0.94908172 -0.44934118 2.3307891
1.0509038 -0.44978434 2.3330867
1.1507978 -0.45021892 2.3353415
1.2508017 -0.45056969 2.3375978
1.325444 -0.45116168 2.339283
-1.102827 -0.3500275 2.3497815
0.39777187 -0.35016868 2.3483961
0.45131049 -0.35101351 2.3192904
0.55003768 -0.35135129 2.3215184
0.64872414 -0.35143605 2.3237457
0.75017357 -0.3499383 2.3260293
0.84983152 -0.34980494 2.3282764
0.94896817 -0.34851292 2.3305094
1.0507778 -0.34885642 2.3328061
1.1506603 -0.34919342 2.3350604
1.2507372 -0.34953117 2.3373189
1.3253803 -0.3497833 2.3390036
-1.1035618 -0.25101683 2.3498833
0.39710268 -0.24753691 2.3508325
0.45125669 -0.25069463 2.3190143
0.54997218 -0.25093541 2.3212419
0.64887893 -0.25117666 2.3234732
0.75008583 -0.2514236 2.3257563
0.84902775 -0.25122368 2.3279881
0.94885671 -0.24980846 2.3302362
1.0506542 -0.25005469 2.3325329
1.1505249 -0.25029626 2.3347862
1.2511321 -0.24946399 2.3370533
1.3252211 -0.24861136 2.3387222
-1.1042757 -0.14998002 2.3484006
0.39643294 -0.15010378 2.3532629
0.45120314 -0.15039927 2.3187377
0.54990649 -0.15054366 2.3209648
0.64880127 -0.15068847 2.3231955
0.74999571 -0.1508365 2.3254783
0.84963924 -0.15068033 2.3277254
0.94908631 -0.15142128 2.3299706
1.0505307 -0.1512762 2.3322592
1.1503894 -0.15142241 2.3345118
1.2498966 -0.15053736 2.3367536
1.3250649 -0.1495709 2.3384461
-1.1050457 -0.049962033 2.3497498
0.39590728 -0.04998171 2.3499119
0.45114905 -0.050127737 2.3184619
0.54984063 -0.050175898 2.3206875
0.64872366 -0.05022411 2.3229184
0.74990618 -0.050273467 2.325201
0.85128754 -0.050322924 2.3274875
0.95074952 -0.050371464 2.3297307
1.0504047 -0.05042005 2.3319788
1.1502514 -0.050468709 2.3342323
1.2502921 -0.050517526 2.336488
1.3249094 -0.050553933 2.338171
-1.1057273 0.050340053 2.3470783
0.39537889 0.049892697 2.34676
0.45109546 0.050119787 2.3181849
0.54977512 0.0501679 2.3204105
0.64864612 0.050216127 2.3226409
0.74981648 0.050265476 2.3249223
0.8511855 0.050314896 2.3272088
0.95063561 0.05036338 2.3294516
1.0502791 0.050411999 2.3316989
1.1501131 0.050460666 2.3339512
1.2501421 0.050509427 2.3362069
1.3247499 0.050545808 2.3378894
-1.1064959 0.14983356 2.3485432
0.39483309 0.14990331 2.3441491
0.45104176 0.15034336 2.3179083
0.54970956 0.1504878 2.3201339
0.64856881 0.15063244 2.3223624
0.74972659 0.15078045 2.3246446
0.8510837 0.15092862 2.32693
0.95052159 0.15107401 2.3291728
1.0501523 0.15121986 2.3314199
1.1499748 0.15136591 2.3336704
1.2499919 0.15151219 2.3359256
1.3245938 0.14951584 2.3376148
-1.1072735 0.24983025 2.3502288
0.39439327 0.25012213 2.3410878
0.45098767 0.25054315 2.3176322
0.54964393 0.25078374 2.3198569
0.64849144 0.25102463 2.3220866
0.74963713 0.25127119 2.3243663
0.85098141 0.25151825 2.3266516
0.94989216 0.25077826 2.3288851
1.0500298 0.24990427 2.3311465
1.1498399 0.25014535 2.3333972
1.2498448 0.2503871 2.3356516
1.3244381 0.24846239 2.3373396
-1.1079904 0.34889695 2.3495357
0.39369974 0.35206431 2.3449297
0.45093378 0.35071898 2.3173554
0.5502097 0.35150248 2.3195927
0.64900905 0.35095832 2.3218224
0.74925268 0.35140023 2.3240826
0.85088199 0.34998909 2.3263791
0.95081514 0.34930268 2.3286359
1.0499066 0.34856498 2.3308723
1.1497047 0.34890193 2.333122
1.2496976 0.34923908 2.3353775
1.3242791 0.34949026 2.3370583
-1.108717 0.44983947 2.3486693
0.3930907 0.44979122 2.346046
0.45088026 0.45087111 2.3170786
0.55161434 0.45131296 2.3193505
0.6502102 0.45148268 2.3215747
0.74976373 0.44972858 2.3238244
0.85078222 0.44843662 2.3261065
0.95018482 0.44886887 2.3283477
1.0497808 0.44930139 2.3305931
1.1495671 0.44973522 2.3328426
1.2495475 0.45016971 2.3350959
1.3241198 0.45049387 2.3367777
-1.108725 0.52510691 2.3499234
-1.0496598 0.54581845 2.3484843
-0.95040917 0.54655373 2.3508103
-0.84985459 0.54727691 2.3457034
-0.75028437 0.54801631 2.3487175
-0.65002042 0.54876226 2.3522224
-0.54957163 0.5494839 2.3467638
-0.45073515 0.55021507 2.3488779
-0.35147047 0.55094939 2.3507864
-0.2468203 0.56858081 2.3148217
-0.14963955 0.56968057 2.3168116
-0.050321642 0.56878781 2.319808
0.049964581 0.56907904 2.3225
0.14989962 0.56973666 2.3250394
0.24930082 0.57062757 2.3261104
0.35723406 0.56403446 2.3282688
0.45082653 0.5509994 2.3168042
0.5515483 0.55153906 2.319073
0.65020013 0.55025762 2.3213027
0.74937183 0.5484159 2.3235445
0.85068083 0.5489552 2.3258281
0.95007128 0.5494839 2.3280685
1.0496547 0.55001354 2.330313
1.1494291 0.55054432 2.3325624
1.2493978 0.55107629 2.3348162
1.3239604 0.55147296 2.3364968
-0.24059331 0.64980316 2.3009362
-0.14936867 0.65144777 2.3029892
-0.049885571 0.64992225 2.3052375
0.049897656 0.64856392 2.3074925
0.14982302 0.64919686 2.3097441
0.2499436 0.6498313 2.3120008
0.35025984 0.65046674 2.3142619
0.45077282 0.65110344 2.3165271
0.55125189 0.65148854 2.3187926
0.6506812 0.64871937 2.3210433
0.74928236 0.64881206 2.3232665
0.85057902 0.64944929 2.3255503
0.94995725 0.65007514 2.32779
1.0495293 0.65070176 2.3300345
1.1492913 0.65132982 2.3322825
1.2490819 0.65003824 2.3345373
1.3238047 0.65032518 2.3362212
-0.23456471 0.74892211 2.3008003
-0.14935108 0.75094295 2.3027163
-0.04948733 0.75122863 2.3049688
0.049467374 0.74887496 2.3072071
0.14980525 0.74898422 2.3094699
0.24991396 0.74971527 2.3117261
0.35021842 0.75044966 2.3139863
0.45071924 0.75118387 2.3162513
0.55115241 0.75088447 2.3185165
0.65021026 0.74846458 2.3207586
0.74919266 0.74918264 2.3229895
0.85047698 0.74991983 2.3252723
0.94984347 0.750642 2.3275111
1.049403 0.75136602 2.3297548
1.1491557 0.74999136 2.3320086
1.2492664 0.7487849 2.3342705
1.3236494 0.74915403 2.3359475
-0.2285222 0.84811139 2.3006639
-0.14933337 0.85041535 2.3024435
-0.049820863 0.85124344 2.304687
0.049885686 0.84999681 2.3069389
0.14978749 0.84874845 2.3091958
0.24988416 0.84957743 2.3114512
0.35017651 0.85040808 2.3137114
0.45066532 0.85124028 2.315975
0.55133396 0.85007519 2.318249
0.65013289 0.84871578 2.3204813
0.74910337 0.84953171 2.3227115
0.85037565 0.850366 2.3249936
0.94972992 0.85118473 2.3272326
1.0488694 0.85044652 2.3294706
1.1498384 0.84914249 2.3317523
1.2497313 0.84895664 2.3340054
1.3234901 0.85006124 2.3356667
-0.22253308 0.94502753 2.3005338
-0.14931601 0.94779241 2.3021772
-0.049815115 0.94871509 2.3044193
0.050322518 0.94902027 2.3066771
0.14976957 0.94848877 2.3089213
0.24985433 0.94941497 2.3111763
0.35013476 0.95034289 2.3134358
0.45061165 0.95127285 2.3156996
0.55133116 0.94959593 2.3179765
0.65005559 0.94894344 2.3202055
0.74901372 0.9498558 2.3224342
0.85027355 0.9507885 2.3247156
0.94915032 0.95099103 2.3269458
1.0495573 0.94894034 2.3292158
1.1510079 0.94936359 2.3315036
1.2509307 0.95028037 2.3337555
1.3233311 0.95094472 2.3353851
0.56804639 1.00034 2.3182137
0.65001494 1.0011369 2.3200607
0.74896723 1.0020988 2.3222899
0.85022074 1.0030832 2.3245709
0.95774835 1.0030477 2.3269963
1.0490887 1.0029207 2.3290575
1.1509333 1.003909 2.3313518
1.2508498 1.0048783 2.3336027
1.323245 1.0055807 2.3352339
-1.103729 -0.42740989 2.4165771
-1.0433786 -0.45396057 2.4206438
-0.95016021 -0.4532811 2.4191093
-0.85074317 -0.45256272 2.4152753
-0.75765234 -0.45187849 2.4157138
-0.64703554 -0.45102522 2.430166
-0.54981095 -0.45032281 2.4263937
-0.44961184 -0.44959813 2.4227507
-0.34782487 -0.44885924 2.4200361
-0.24994336 -0.44812196 2.4266703
-0.15511678 -0.44742084 2.4285414
-0.050372094 -0.44664669 2.4304445
0.054693703 -0.44587579 2.4304178
0.15056898 -0.44516164 2.4340391
0.25030467 -0.44443974 2.4304457
0.36362037 -0.43650937 2.4275644
-1.1043599 -0.34996423 2.4178181
0.39584535 -0.34919235 2.4274368
-1.1051173 -0.24709107 2.4176455
0.3951326 -0.25459677 2.4279883
-1.1058056 -0.15019521 2.4163804
0.3941057 -0.14540543 2.4377041
-1.1065222 -0.053389095 2.4163928
0.39336193 -0.05056145 2.4395647
-1.1072508 0.050039336 2.4147618
0.39270583 0.050449084 2.4354961
-1.1080303 0.15021197 2.4164615
0.39206466 0.15038799 2.4311185
-1.1088107 0.25052571 2.4181633
0.39140978 0.24999666 2.4274578
-1.109547 0.35357049 2.4170191
0.39066601 0.34547129 2.4291079
-1.1101923 0.44708624 2.4149423
0.38983727 0.45114779 2.4311779
-1.1103142 0.5251556 2.4128218
-1.0506645 0.54600316 2.4146981
-0.94619429 0.54677534 2.4166415
-0.849433 0.54747051 2.4116178
-0.74943525 0.54821312 2.414685
-0.64915621 0.5489589 2.4181743
-0.54968691 0.54969823 2.4214306
-0.4499495 0.55043936 2.424696
-0.3459501 0.55120414 2.4252598
-0.24939795 0.55190212 2.4215937
-0.14998543 0.55264026 2.4245486
-0.050298262 0.55338186 2.4280868
0.050388943 0.55413038 2.4313703
0.1506139 0.55487436 2.434351
0.25343889 0.55562919 2.4343958
0.35866758 0.54757935 2.4336891
