# .PCD v0.7 - Point Cloud Data file format
VERSION 0.7
FIELDS x y z
SIZE 4 4 4
TYPE F F F
COUNT 1 1 1
WIDTH 533
HEIGHT 1
VIEWPOINT 0 0 0 1 0 0 0
POINTS 533
DATA ascii
-1.3078427 -0.93153006 2.2826529
-1.2494954 -0.93044156 2.2839639
-1.1483868 -0.9298659 2.2862337
-1.0498908 -0.92938054 2.2884464
-0.94925362 -0.92862576 2.2907093
-0.85102046 -0.92952192 2.2929163
-0.75148469 -0.92930847 2.2951541
-0.64937371 -0.92754209 2.2974441
-0.56824923 -0.92752784 2.2992687
-1.3077207 -0.85125351 2.282439
-1.2493258 -0.85051292 2.2837501
-1.1504626 -0.84900171 2.2859685
-1.0492412 -0.84929556 2.2882452
-0.94916642 -0.85013127 2.2904959
-0.85094285 -0.85095167 2.2927065
-0.74996024 -0.85061508 2.2949774
-0.65009308 -0.84884292 2.2972164
-0.5632937 -0.84797865 2.2991652
-1.3075669 -0.75041288 2.2821717
-1.2509719 -0.74912751 2.2834396
-1.1510235 -0.74951005 2.2856879
-1.0491205 -0.75026178 2.2879808
-0.94905663 -0.75099933 2.2902312
-0.85035723 -0.75050271 2.2924497
-0.75090396 -0.74925601 2.2946832
-0.64973396 -0.74906713 2.2969563
-0.55730546 -0.74859816 2.2990324
-1.3074136 -0.64959633 2.2819026
-1.2505471 -0.64996028 2.2831831
-1.1508906 -0.65059888 2.2854242
-1.0494939 -0.65162343 2.2877085
-0.94945079 -0.64947706 2.2899489
-0.85123199 -0.6492663 2.2921576
-0.75029892 -0.64902711 2.2944255
-0.64965886 -0.64966774 2.296689
-0.55187201 -0.64961326 2.2988875
-0.49934188 -0.61329967 2.2999709
-1.3072628 -0.55086017 2.2816408
-1.2504042 -0.55116886 2.2829201
-1.1506052 -0.54980969 2.2851591
-1.050916 -0.55019051 2.2874017
-0.95095843 -0.5487532 2.2896461
-0.85064393 -0.54920781 2.2919016
-0.75021172 -0.54974949 2.2941601
-0.64958376 -0.55029196 2.2964237
-0.55081528 -0.5508244 2.2986453
-0.49524176 -0.54121786 2.2998693
-1.3071091 -0.45009068 2.2813721
-1.2502569 -0.45034286 2.2826498
-1.1507754 -0.44889584 2.2848849
-1.0585968 -0.46941429 2.2877369
-0.95079833 -0.47849753 2.2894576
-0.8493554 -0.47779775 2.2921195
-0.7500459 -0.47749561 2.2942023
-0.64952868 -0.47784391 2.2962296
-0.55076885 -0.47830629 2.2984505
-0.49166253 -0.47744471 2.2997775
-1.3069562 -0.34934461 2.281105
-1.2501098 -0.34954035 2.2823822
-1.1504874 -0.34988335 2.2846231
-1.0943973 -0.35037205 2.2878275
-1.3068055 -0.25067756 2.2808428
-1.2499658 -0.25081801 2.2821195
-1.1503549 -0.25106421 2.2843618
-1.0945144 -0.25077564 2.2881925
-1.3066521 -0.14997838 2.2805746
-1.249819 -0.15006252 2.2818513
-1.1502194 -0.15020978 2.2840929
-1.0947392 -0.14982128 2.2884297
-1.3064989 -0.04930279 2.2803066
-1.2496713 -0.049330417 2.281585
-1.1500844 -0.049378783 2.2838242
-1.0951006 -0.049493376 2.2893045
-1.3063483 0.049295243 2.2800448
-1.2495284 0.049322847 2.2813213
-1.1499521 0.049371231 2.2835605
-1.0955002 0.049517475 2.2901411
-1.306195 0.14992389 2.2797773
-1.2493812 0.15000774 2.281054
-1.1498165 0.15015508 2.2832911
-1.0959129 0.14929956 2.2908878
-1.3075465 0.24799234 2.2794816
-1.2508535 0.25099325 2.2807498
-1.1496814 0.25091529 2.2830234
-1.096302 0.24528477 2.2895856
-1.307919 0.34905121 2.2792022
-1.2511201 0.34924671 2.2804766
-1.1495495 0.34959629 2.2827616
-1.0966583 0.35043943 2.2882447
-1.3077654 0.44960758 2.2789345
-1.2509731 0.44985917 2.2802107
-1.1494138 0.45030957 2.2824919
-1.0971957 0.44960943 2.2893672
-1.3076119 0.55014032 2.2786665
-1.2508247 0.55044848 2.279943
-1.1492789 0.5509994 2.2822247
-1.0526437 0.56693006 2.2849951
-0.9496358 0.57061017 2.2866597
-0.85037601 0.57008564 2.2888913
-0.74923307 0.56967109 2.2911677
-0.64873743 0.57023454 2.2934322
-0.55010432 0.5707925 2.29568
-0.45154852 0.57151031 2.2979186
-0.37854755 0.57449245 2.2994862
-1.3074585 0.65064961 2.2783999
-1.2509025 0.6492154 2.2796738
-1.1491467 0.64961123 2.2819607
-1.0494452 0.65024841 2.284199
-0.94954723 0.65088749 2.2864454
-0.84895784 0.65039343 2.2887073
-0.75070518 0.64970845 2.2909179
-0.65045905 0.64930391 2.2931724
-0.55004483 0.64930922 2.2954304
-0.45122296 0.64993745 2.2976503
-0.37410951 0.65225184 2.299377
-1.3073056 0.75113505 2.2781324
-1.2503202 0.74974352 2.279418
-1.1490117 0.75025338 2.2816932
-1.0494796 0.74911135 2.2839329
-0.94943714 0.74967003 2.2861822
-0.8493551 0.75040615 2.2884283
-0.75112361 0.7511304 2.2906361
-0.65043312 0.75004697 2.292902
-0.55043131 0.74918455 2.2951519
-0.45117071 0.74920374 2.2973826
-0.36816105 0.75125402 2.2992432
-1.3071553 0.84954715 2.2778709
-1.2503885 0.85002285 2.279144
-1.1488763 0.85087317 2.2814257
-1.0490508 0.84981889 2.2836723
-0.94980305 0.84976184 2.2859049
-0.84925687 0.84926414 2.2881651
-0.75103688 0.85008252 2.2903719
-0.65057409 0.85092002 2.2926269
-0.54947126 0.85036713 2.2949014
-0.45156959 0.84915197 2.2971056
-0.36220786 0.85033345 2.2991111
-1.3070143 0.94178826 2.2776256
-1.2502545 0.9423151 2.2789004
-1.1502874 0.94292098 2.2811451
-1.0506504 0.94448471 2.2833786
-0.94867116 0.94435245 2.2856758
-0.84916359 0.94398075 2.2879102
-0.7509535 0.9448905 2.2901182
-0.65050226 0.94582129 2.2923732
-0.54985392 0.94675356 2.2946334
-0.4505823 0.94627482 2.2968647
-0.35624591 0.94742942 2.2989843
-0.51887834 -0.92920071 2.3003821
-0.45027885 -0.92712766 2.3019195
-0.34872153 -0.92787021 2.3042037
-0.2498326 -0.92800713 2.3064277
-0.14973719 -0.92550999 2.3086708
-0.049955569 -0.92640948 2.3109159
0.049072701 -0.92603856 2.3131413
0.15019089 -0.92612702 2.3154154
0.25146183 -0.92630416 2.3176923
0.35095033 -0.9238441 2.3199222
0.4497734 -0.92463487 2.3221452
0.54781359 -0.92502338 2.3243513
0.64976311 -0.92432892 2.3266401
0.75219578 -0.9240616 2.3289425
0.8494795 -0.92286909 2.3311272
0.95014095 -0.92280608 2.3333888
1.0499467 -0.92369413 2.3356347
1.1492456 -0.92284983 2.3378651
1.2511033 -0.92186415 2.3401523
1.324862 -0.92191714 2.3418105
-0.51414543 -0.85330313 2.3002849
-0.44994801 -0.85014945 2.3017197
-0.34869039 -0.85099113 2.3039973
-0.24903625 -0.85102797 2.3062382
-0.14972375 -0.84848148 2.3084638
-0.049951117 -0.84930658 2.3107083
0.050015882 -0.85013342 2.3129578
0.15017767 -0.85096192 2.3152122
0.25006294 -0.85111099 2.3174584
0.35124689 -0.84860861 2.319726
0.44973391 -0.84925199 2.3219414
0.54857159 -0.85006535 2.3241658
0.64970744 -0.85089749 2.3264415
0.75050354 -0.85061175 2.3287063
0.85096979 -0.84933251 2.3309619
0.95005989 -0.84916162 2.3331895
1.0498567 -0.84997922 2.3354342
1.1498476 -0.85079789 2.3376846
1.2495817 -0.85016567 2.3399241
1.3247501 -0.85011876 2.3416142
-0.50844389 -0.75776255 2.3001549
-0.44989589 -0.75053149 2.3014519
-0.34864965 -0.7512753 2.3037293
-0.24918908 -0.75026894 2.305963
-0.1497063 -0.7485733 2.3081958
-0.049945246 -0.74930084 2.3104391
0.050010063 -0.75003052 2.3126888
0.15016013 -0.75076127 2.3149416
0.25050557 -0.75149351 2.3172002
0.35140273 -0.74942631 2.3194616
0.44968122 -0.74875993 2.3216691
0.54850763 -0.74947751 2.3238924
0.64963156 -0.750211 2.3261683
0.7509535 -0.75094664 2.3284488
0.84983796 -0.75058991 2.3306701
0.95031136 -0.74983662 2.3329272
1.0497327 -0.7489028 2.3351591
1.149712 -0.74962485 2.3374083
1.2498823 -0.75034732 2.3396626
1.3245975 -0.75088668 2.3413441
-0.50419337 -0.68238777 2.3000479
-0.44934353 -0.65131938 2.3011968
-0.34860966 -0.65158349 2.303462
-0.24959581 -0.64919633 2.3056819
-0.14968902 -0.64868784 2.3079264
-0.049939446 -0.64931875 2.3101707
0.050004248 -0.64995068 2.3124189
0.1501426 -0.65058374 2.314672
0.25047642 -0.65121818 2.3169286
0.35048699 -0.65100086 2.3191764
0.44997421 -0.64873379 2.3214068
0.54844338 -0.64891267 2.3236208
0.64955497 -0.64954782 2.3258958
0.75086522 -0.65018439 2.3281753
0.85025656 -0.65080893 2.3304102
0.94948685 -0.65100855 2.3326416
1.0496118 -0.64995617 2.3348904
1.1501163 -0.64942205 2.337148
1.2497352 -0.64910066 2.3393869
1.3244414 -0.64956683 2.3410673
-0.44445917 -0.55255961 2.3010411
-0.34806663 -0.55077118 2.3032029
-0.24937357 -0.54847234 2.3054156
-0.14967154 -0.54882598 2.3076575
-0.049933601 -0.54935956 2.309901
0.049998403 -0.54989409 2.3121488
0.15012507 -0.55043006 2.3144009
0.25044724 -0.55096656 2.316659
0.35096487 -0.55150449 2.3189194
0.45033914 -0.54989713 2.3211486
0.54957694 -0.54899675 2.3233774
0.64947909 -0.54890847 2.3256223
0.75077713 -0.5494464 2.3279011
0.85015666 -0.54997408 2.3301373
0.94972843 -0.55050266 2.3323765
1.0494906 -0.55103219 2.3346207
1.1489044 -0.55044127 2.3368547
1.249591 -0.5499863 2.3391154
1.3242896 -0.55038106 2.3407972
-1.0729859 -0.44196203 2.3493423
-0.94969356 -0.45836142 2.3445551
-0.85207057 -0.45773929 2.3471103
-0.74965936 -0.45708826 2.3491552
-0.64750427 -0.4564437 2.3495781
-0.54996586 -0.45581907 2.3532398
-0.44361085 -0.47088817 2.317785
-0.3498545 -0.47062793 2.3171198
-0.24948649 -0.46988171 2.3181283
-0.14985573 -0.47005898 2.3190565
-0.0500165 -0.47018841 2.3198504
0.050792877 -0.46986261 2.3227949
0.15010728 -0.46943584 2.3263247
0.25040632 -0.46958277 2.3273404
0.35091421 -0.46977723 2.328172
0.44961867 -0.45060852 2.3239067
0.55033219 -0.45005178 2.3231277
0.64984405 -0.4488875 2.3253622
0.75068897 -0.44873196 2.3276284
0.85005677 -0.44916278 2.3298626
0.9496178 -0.4495945 2.3321013
1.0493672 -0.45002702 2.3343461
1.1493112 -0.45046031 2.3365943
1.2494464 -0.45089468 2.3388462
1.3241355 -0.45121828 2.3405259
-1.0934154 -0.34991962 2.347585
0.44838697 -0.35115945 2.3255043
0.55035639 -0.35155439 2.3228626
0.6488803 -0.35042381 2.3250747
0.75060296 -0.35013914 2.3273606
0.85025072 -0.34872863 2.329597
0.94950527 -0.34871006 2.3318269
1.0492432 -0.34904513 2.3340716
1.1491759 -0.34938154 2.336319
1.2492988 -0.34971827 2.3385711
1.323979 -0.34996942 2.3402498
-1.0940899 -0.24970961 2.3492019
0.44827005 -0.25085172 2.3248985
0.55029184 -0.25108126 2.3225913
0.64925408 -0.25132185 2.3248165
0.7505163 -0.25156802 2.3270922
0.84955782 -0.25008756 2.3293161
0.94939613 -0.24995035 2.3315585
1.0491229 -0.25019073 2.333802
1.1491315 -0.25034052 2.33605
1.2491516 -0.24856587 2.3382945
1.3238227 -0.24874452 2.3399742
-1.0947514 -0.15014075 2.3504069
0.44788095 -0.15030663 2.3247023
0.55022734 -0.15063149 2.3223193
0.64917779 -0.15077579 2.324544
0.75042844 -0.15092349 2.3268199
0.84976155 -0.15106834 2.3290536
0.94928581 -0.15121344 2.3312912
1.0502625 -0.15084045 2.3335605
1.1500452 -0.15194488 2.3358066
1.2490075 -0.1495439 2.3380256
1.3236701 -0.14965126 2.3397031
-1.095314 -0.05011639 2.3470995
0.44641259 -0.050146345 2.3263326
0.55016267 -0.050205242 2.3220468
0.64910138 -0.050253358 2.3242717
0.75034046 -0.050302587 2.3265467
0.84966165 -0.050350867 2.3287799
0.949175 -0.050399214 2.3310187
1.0510023 -0.050448734 2.3333068
1.150902 -0.050497282 2.3355525
1.2494129 -0.050137352 2.3377657
1.3240181 -0.05138842 2.3394468
-1.0959818 0.049945727 2.3484724
0.44628575 0.050126132 2.3256218
0.5500983 0.050197437 2.3217745
0.6490255 0.050245523 2.3239985
0.75025213 0.05029469 2.3262742
0.84956181 0.050342958 2.3285072
0.94906384 0.050391324 2.3307433
1.0508792 0.050440807 2.3330326
1.1507667 0.050489374 2.3352773
1.2508482 0.050538003 2.3375275
1.3254949 0.050574239 2.3392057
-1.0966585 0.1501067 2.3502135
0.44615769 0.15033452 2.3249457
0.55003405 0.15057667 2.3215039
0.64894927 0.15072072 2.3237264
0.75016421 0.15086845 2.3260012
0.84946203 0.15101312 2.3282332
0.94895142 0.15115815 2.3304694
1.0507553 0.1513066 2.3327582
1.150631 0.1514522 2.3350022
1.2501718 0.15039097 2.3372431
1.3253418 0.1496003 2.3389342
-1.0972599 0.25121653 2.3483443
0.4459635 0.25055939 2.3243003
0.54996985 0.25093237 2.3212309
0.64887267 0.25117263 2.3234544
0.75007653 0.2514185 2.3257287
0.8492012 0.25148389 2.3279564
0.94884247 0.24980283 2.3302011
1.050634 0.2500481 2.332489
1.1504987 0.25028881 2.3347332
1.2510853 0.24928138 2.3369966
1.3251889 0.24860342 2.3386648
-1.0978888 0.35000473 2.3483448
0.4458361 0.35080114 2.3235505
0.54990524 0.35126418 2.3209598
0.64879715 0.35160083 2.3231819
0.74962997 0.35030094 2.3254521
0.84999663 0.35039982 2.327708
0.9492467 0.3480289 2.329946
1.0505135 0.34876698 2.3322194
1.1503661 0.34910196 2.3344636
1.2504115 0.34943852 2.3367119
1.3250328 0.34968916 2.3383894
-1.0985553 0.45027992 2.3495924
0.4456498 0.45107195 2.3229868
0.54984081 0.45157328 2.320688
0.64827424 0.45054063 2.3229041
0.75025451 0.44868371 2.3252008
0.85128182 0.44869983 2.3274722
0.95073968 0.44913071 2.3297074
1.0503906 0.44956234 2.3319457
1.1502302 0.44999489 2.3341889
1.2502649 0.45042816 2.3364367
1.3248764 0.45075127 2.3381135
-1.1001112 0.52282733 2.3982265
-1.0688317 0.532529 2.3471177
-0.95002693 0.54166859 2.349164
-0.85038155 0.54230005 2.3502631
-0.74951845 0.54292172 2.3449929
-0.65056533 0.54355311 2.3475626
-0.55053604 0.54419267 2.3507926
-0.44953135 0.54483384 2.3522029
-0.33749118 0.56106484 2.3210046
-0.24927123 0.56559616 2.317286
-0.15075563 0.565552 2.3188758
-0.049869157 0.56595069 2.3181469
0.049937487 0.56653154 2.3205299
0.14994286 0.5671137 2.3229642
0.2501553 0.56769687 2.3254502
0.35045323 0.5683251 2.327636
0.44816375 0.54986829 2.320456
0.54931343 0.55114919 2.3204081
0.64908808 0.54879862 2.3226578
0.74981618 0.54874122 2.3249216
0.85118222 0.54927844 2.327199
0.95062798 0.54980588 2.329433
1.050267 0.55033416 2.3316705
1.1500953 0.55086368 2.3339148
1.2499548 0.55122429 2.3361583
1.3247235 0.54968494 2.3378432
-0.32275596 0.64866847 2.3005404
-0.24886738 0.65122294 2.3021955
-0.14895454 0.65079904 2.3044424
-0.050089855 0.64860249 2.3066707
0.049928501 0.64896482 2.3089185
0.14991507 0.64959615 2.3111644
0.25009635 0.65022844 2.3134146
0.35047296 0.65086246 2.3156691
0.4510453 0.65149736 2.317929
0.54978353 0.64984709 2.320153
0.64857292 0.64856356 2.3223767
0.7497282 0.64919829 2.3246489
0.85108209 0.64983362 2.3269262
0.95051628 0.65045756 2.3291602
1.0501425 0.65108252 2.3313968
1.1494414 0.65063149 2.333631
1.2501431 0.65005207 2.3358965
1.3245707 0.64859557 2.3375731
-0.3168135 0.74752933 2.3004086
-0.2488385 0.75068593 2.3019285
-0.14944471 0.7514146 2.3041611
-0.0501124 0.7495575 2.3063977
0.049922731 0.74871826 2.3086498
0.14989758 0.74944633 2.3108947
0.25006723 0.75017631 2.3131444
0.35043207 0.75090718 2.3153987
0.45099252 0.75164014 2.3176577
0.55004287 0.74871272 2.3198929
0.64849633 0.74889898 2.3221056
0.74964023 0.74963152 2.3243761
0.85098219 0.75036472 2.3266532
0.95040464 0.75108522 2.3288856
1.0494921 0.75060117 2.3311145
1.150347 0.74931538 2.3333857
1.2498289 0.74905038 2.3356225
1.3244146 0.749587 2.3372979
-0.31089294 0.84590852 2.300276
-0.2488095 0.85012609 2.3016605
-0.14942726 0.85095042 2.3038929
-0.049372874 0.85098201 2.3061414
0.049833987 0.84853816 2.3083789
0.14988016 0.84927428 2.310626
0.25003824 0.85010058 2.3128748
0.35039115 0.8509292 2.3151286
0.45064688 0.85142124 2.3173816
0.54994893 0.84870183 2.3196211
0.64875865 0.84892046 2.3218417
0.74955243 0.85004103 2.3241038
0.85088235 0.85087293 2.32638
0.94982684 0.85097677 2.3286042
1.0504252 0.84916884 2.3308711
1.1496949 0.84912837 2.3331029
1.2496819 0.84994537 2.3353477
1.3242586 0.85055506 2.3370225
-0.30513459 0.94009161 2.3001523
-0.24878143 0.94747174 2.301399
-0.14941017 0.94839078 2.3036311
-0.049846422 0.94931108 2.305867
0.04999429 0.94823986 2.3081141
0.14986274 0.94907814 2.3103564
0.25000885 0.95000213 2.3126054
0.35035023 0.95092797 2.3148584
0.45074517 0.95090395 2.3171155
0.55162346 0.94861001 2.3193893
0.65044832 0.94951749 2.3216083
0.74946499 0.95042735 2.3238313
0.85078245 0.95135772 2.3261077
0.95065796 0.94943017 2.3283577
1.0497777 0.94899058 2.3305876
1.1495597 0.94990349 2.3328283
1.2495345 0.95081711 2.3350723
1.3239564 0.95112836 2.3367445
0.48650649 1.0001557 2.3177867
0.55158979 1.0007864 2.319248
0.65040898 1.0017439 2.3214672
0.7494188 1.0027032 2.3236904
0.85073042 1.0036848 2.3259652
0.95012581 1.0025529 2.3282027
1.0497109 1.0035156 2.3304386
1.1494862 1.0044805 2.3326788
1.249455 1.005447 2.3349235
1.3256177 1.0056578 2.3366351
-1.0733416 -0.44120595 2.4211087
-0.94901502 -0.45813924 2.4217496
-0.84969419 -0.45752284 2.4184911
-0.75064242 -0.45690805 2.4152412
-0.64959383 -0.4562552 2.4210265
-0.55090964 -0.45560467 2.4312501
-0.45061818 -0.4549816 2.4281847
-0.34951222 -0.45435408 2.4248359
-0.24503858 -0.45369312 2.4258444
-0.15031274 -0.45308614 2.4294982
-0.050288454 -0.45246452 2.4265106
0.04551604 -0.45185897 2.4272168
0.15106188 -0.45118117 2.4318039
0.24979973 -0.45053673 2.4397476
0.34967467 -0.44991797 2.4360456
0.40522572 -0.42715341 2.4336495
-1.0949551 -0.35047159 2.4164317
0.40513265 -0.34965664 2.430676
-1.0956256 -0.25048867 2.4179115
0.40456572 -0.2500439 2.427664
-1.0962955 -0.14968657 2.4191165
0.40399942 -0.1520022 2.4250655
-1.0968574 -0.050050952 2.4158502
0.40294608 -0.047488336 2.4422801
-1.0975294 0.050091773 2.4173291
0.40235496 0.050560884 2.4407878
-1.0981662 0.14803222 2.4179027
0.40180069 0.15075614 2.4370327
-1.0987576 0.25021991 2.4152198
0.40123668 0.24994275 2.4340065
-1.0994215 0.34978977 2.416539
0.39993024 0.38888168 2.4527147
0.40074909 0.34584615 2.42851
-1.1002537 0.46198311 2.4217727
-1.0998095 0.42747688 2.411787
0.39965782 0.45780793 2.4452999
0.40045571 0.44411021 2.413718
-1.1005709 0.52086478 2.4192069
-1.0497369 0.54124177 2.4226356
-0.95045549 0.54187566 2.4254737
-0.84725708 0.54252928 2.4264586
-0.75351703 0.54309994 2.419054
-0.64923197 0.54374433 2.414161
-0.54873198 0.54438651 2.4172175
-0.44908747 0.54502273 2.4200425
-0.34920976 0.5456605 2.4228747
-0.25019407 0.54629219 2.4254637
-0.14650209 0.54694563 2.425252
-0.050165668 0.54754317 2.421612
0.05024397 0.54818422 2.4244478
0.15015635 0.54882145 2.4269807
0.24956261 0.54945695 2.430078
0.36230808 0.54342479 2.4335625
0.40021342 0.52568305 2.4013815
