# .PCD v0.7 - Point Cloud Data file format
VERSION 0.7
FIELDS x y z
SIZE 4 4 4
TYPE F F F
COUNT 1 1 1
WIDTH 530
HEIGHT 1
VIEWPOINT 0 0 0 1 0 0 0
POINTS 530
DATA ascii
-1.3078671 -0.92597854 2.2791114
-1.2510772 -0.92650223 2.280401
-1.1499628 -0.92564183 2.2826934
-1.0497975 -0.9262988 2.2849669
-0.950728 -0.92411035 2.287209
-0.84975266 -0.92401153 2.2895002
-0.75012738 -0.92453915 2.2917614
-0.64891374 -0.92378348 2.2940559
-0.54928356 -0.92396373 2.2963171
-0.45201162 -0.92181033 2.2985196
-0.3942686 -0.92051315 2.2998261
-1.3077756 -0.84995234 2.2789519
-1.2509894 -0.85043281 2.2802405
-1.1489863 -0.85061967 2.2825558
-1.0497236 -0.85007757 2.2848058
-0.94988799 -0.84894431 2.2870688
-0.84969437 -0.84970272 2.2893434
-0.74938148 -0.85054845 2.291621
-0.64864659 -0.85112917 2.2939079
-0.55065918 -0.84948134 2.2961273
-0.4513661 -0.84891534 2.2983785
-0.39077857 -0.84610873 2.2997468
-1.3076003 -0.75063556 2.2787445
-1.2508737 -0.74970806 2.2800295
-1.1497822 -0.7498222 2.2823224
-1.049626 -0.74915051 2.2845943
-0.94971955 -0.74989474 2.2868609
-0.84961647 -0.75063944 2.289134
-0.74902785 -0.7510469 2.2914174
-0.64902604 -0.74981666 2.2936826
-0.55016285 -0.74873042 2.2959232
-0.4513244 -0.74946111 2.2981672
-0.38605735 -0.74755239 2.2996449
-1.3075892 -0.65002298 2.2785304
-1.2507584 -0.64900237 2.2798188
-1.1492281 -0.64965868 2.2821231
-1.0495298 -0.65030265 2.2843857
-0.94963306 -0.65094811 2.2866523
-0.84904194 -0.65045941 2.2889333
-0.74952006 -0.64985669 2.2911904
-0.64874876 -0.64875799 2.293474
-0.55011266 -0.64939141 2.2957134
-0.45128286 -0.65002584 2.2979574
-0.38139549 -0.64845419 2.2995381
-1.3074138 -0.55005872 2.278321
-1.250643 -0.5503698 2.2796102
-1.149123 -0.55092597 2.2819138
-1.0489346 -0.55042446 2.2841849
-0.94954431 -0.549959 2.2864394
-0.84995693 -0.54940569 2.288697
-0.75052094 -0.54943317 2.2909536
-0.65007591 -0.54908013 2.2932315
-0.55006218 -0.55007106 2.2955027
-0.45124134 -0.55060852 2.2977459
-0.37682667 -0.54938507 2.299432
-1.3072925 -0.44944668 2.27811
-1.2505268 -0.44970098 2.2793984
-1.1501715 -0.45075151 2.2820957
-1.0503681 -0.47432241 2.2840571
-0.94859672 -0.47308454 2.2866182
-0.84947169 -0.47231963 2.2891519
-0.75122267 -0.47261217 2.2909322
-0.65069574 -0.47305217 2.2930562
-0.55002332 -0.47352347 2.295341
-0.45069075 -0.47362435 2.2976086
-0.3732678 -0.4719249 2.2993505
-1.3071712 -0.34885332 2.2778978
-1.2504117 -0.34905082 2.2791867
-1.1513406 -0.34945816 2.2824359
-1.3070521 -0.25033101 2.2776918
-1.2502978 -0.25047261 2.2789791
-1.1524205 -0.25111249 2.2818806
-1.3069308 -0.14977469 2.2774804
-1.2501814 -0.1498594 2.2787676
-1.1531142 -0.14995475 2.2815409
-1.3068095 -0.049236905 2.2772691
-1.2500652 -0.049264718 2.2785561
-1.1530225 -0.049328201 2.2815204
-1.3066907 0.049230944 2.2770622
-1.2499515 0.049258761 2.2783494
-1.1529993 0.049327094 2.2814815
-1.3065697 0.14973167 2.2768497
-1.249835 0.14981641 2.2781379
-1.1531049 0.14985827 2.2813995
-1.3064483 0.25021383 2.2766387
-1.2497197 0.25035527 2.2779262
-1.1537795 0.24996771 2.2810211
-1.3063271 0.35067731 2.2764285
-1.2499866 0.34933037 2.2777102
-1.1546056 0.34926406 2.2805843
-1.3062061 0.45112222 2.276217
-1.2491159 0.4498049 2.2775147
-1.1547173 0.44973955 2.2805152
-1.3060873 0.54949909 2.2760098
-1.2493738 0.54980958 2.2772954
-1.151383 0.55130434 2.2801836
-1.050308 0.5736177 2.2819388
-0.95055121 0.57405651 2.2843037
-0.85059458 0.57479626 2.2866328
-0.75133777 0.57450372 2.289017
-0.65005845 0.57392716 2.291394
-0.55013269 0.57600754 2.2932172
-0.45077246 0.5769161 2.2953558
-0.3497982 0.5774917 2.297646
-0.272073 0.57835215 2.299407
-1.3059661 0.64990705 2.275799
-1.2492576 0.65027434 2.2770841
-1.1502582 0.64939159 2.2793341
-1.0503052 0.64950848 2.2816005
-0.95053262 0.65015221 2.2838609
-0.85055977 0.65079731 2.2861285
-0.74991953 0.65065461 2.2884126
-0.65002155 0.65002954 2.2906802
-0.54973674 0.64896607 2.2929566
-0.4507423 0.64924502 2.2952025
-0.34977475 0.64989281 2.297492
-0.26868275 0.65174502 2.2993276
-1.3058448 0.75029665 2.275588
-1.2491421 0.75072008 2.2768748
-1.1494054 0.74991101 2.2791383
-1.0502069 0.75015354 2.2813883
-0.95077801 0.74928099 2.2836454
-0.85048229 0.74958426 2.2859199
-0.75032169 0.75033027 2.2881908
-0.64996094 0.75107497 2.2904663
-0.54912668 0.75009364 2.2927558
-0.45119238 0.74930245 2.2949789
-0.34974262 0.7491703 2.2972815
-0.26393643 0.75090593 2.2992237
-1.305724 0.85066712 2.2753768
-1.2492503 0.84935099 2.2766607
-1.1496687 0.84993833 2.2789187
-1.0501095 0.85077995 2.2811754
-0.95003158 0.84998524 2.2834458
-0.85082012 0.84984791 2.2856991
-0.7502535 0.8491962 2.2879813
-0.64990127 0.85004044 2.2902563
-0.5493511 0.85088634 2.2925355
-0.45017013 0.85049516 2.2947869
-0.35019782 0.84919053 2.2970574
-0.2592704 0.8501749 2.2991188
-1.3056129 0.94282824 2.2751839
-1.2486656 0.94154942 2.2764783
-1.1495697 0.94224268 2.2787251
-1.0500205 0.94317579 2.2809815
-0.95027429 0.94411075 2.2832432
-0.84984565 0.94445664 2.2855189
-0.75018817 0.94392711 2.2877815
-0.64984447 0.94486529 2.2900567
-0.54930294 0.94580555 2.2923346
-0.45061848 0.94672859 2.2945719
-0.34915441 0.94633293 2.2968738
-0.25468737 0.947366 2.299016
-0.34279567 -0.9226805 2.3009987
-0.2501379 -0.92237371 2.3030999
-0.14952387 -0.92211336 2.305382
-0.049197748 -0.92143548 2.3076558
0.049949884 -0.91976005 2.3099015
0.14998065 -0.92066485 2.3121731
0.24901381 -0.92021859 2.3144193
0.35063282 -0.92038959 2.316725
0.45038629 -0.91871196 2.3189847
0.54997236 -0.91800243 2.3212421
0.64888299 -0.91889024 2.3234885
0.74923241 -0.91807961 2.325763
0.85006893 -0.91829449 2.3280518
0.94743854 -0.91655332 2.3302567
1.0506834 -0.91618901 2.3325975
1.1505641 -0.91707951 2.3348658
1.250638 -0.91586506 2.3371329
1.3252817 -0.91652906 2.3388283
-0.33937973 -0.85074478 2.3009224
-0.24895151 -0.850613 2.302974
-0.14951411 -0.85144687 2.3052313
-0.050053339 -0.84916711 2.3074832
0.049946606 -0.84895462 2.3097515
0.14997087 -0.84978932 2.3120229
0.25019205 -0.85062557 2.3142982
0.35061061 -0.85146362 2.3165772
0.45167071 -0.84915227 2.3188655
0.54993743 -0.84894192 2.3210952
0.64884162 -0.84976298 2.3233399
0.75004703 -0.85060364 2.3256381
0.84910643 -0.85116255 2.3278863
0.94912547 -0.84979331 2.3301523
1.0506178 -0.84889376 2.3324533
1.1504928 -0.84971917 2.3347208
1.2505625 -0.85054594 2.3369932
1.3252019 -0.85116291 2.3386879
-0.33462632 -0.75136673 2.3008194
-0.24892868 -0.75096083 2.3027627
-0.14927457 -0.75142783 2.3050244
-0.050163232 -0.748631 2.3072672
0.049941983 -0.74900913 2.3095388
0.149957 -0.74974531 2.3118093
0.25016892 -0.75048298 2.3140841
0.35057804 -0.75122124 2.3163633
0.45081735 -0.75066799 2.3186367
0.54988641 -0.74850577 2.3208797
0.64878142 -0.74922884 2.3231249
0.74997759 -0.74997008 2.3254225
0.84980476 -0.75029439 2.3276868
0.94895113 -0.751486 2.3299394
1.0505221 -0.75006741 2.3322406
1.1504699 -0.74878067 2.3345046
1.2504457 -0.7494204 2.3367748
1.3250779 -0.74996454 2.3384693
-0.32996577 -0.65211481 2.3007135
-0.24890582 -0.65132517 2.302551
-0.14920346 -0.65056854 2.304811
-0.049872097 -0.64844447 2.30706
0.049937382 -0.64908099 2.3093259
0.14994326 -0.64971912 2.311595
0.25014567 -0.65035844 2.3138709
0.35054576 -0.65099907 2.3161495
0.45098254 -0.65147257 2.3184283
0.55034989 -0.6491589 2.3206789
0.6487211 -0.64871347 2.3229098
0.74990791 -0.64935523 2.3252056
0.8512947 -0.64999807 2.3275075
0.950764 -0.65062827 2.3297658
1.050427 -0.65126038 2.3320279
1.1501923 -0.64988381 2.3342888
1.2507843 -0.64979088 2.33657
1.3249546 -0.64878529 2.3382504
-0.32538491 -0.55280602 2.300606
-0.2485975 -0.55135268 2.3023453
-0.1499774 -0.54906577 2.3045771
-0.049867526 -0.54863322 2.3068483
0.049932808 -0.54917192 2.3091125
0.14992931 -0.54971176 2.3113828
0.25012282 -0.55025268 2.3136563
0.35051316 -0.55079442 2.3159356
0.45110199 -0.55133748 2.3182192
0.54927337 -0.55088907 2.3204448
0.64916289 -0.54898375 2.3227065
0.74983829 -0.54875886 2.3249903
0.85121608 -0.54930204 2.3272915
0.95067531 -0.54983503 2.3295486
1.0503294 -0.55036873 2.3318114
1.1501758 -0.5509038 2.3340769
1.2497709 -0.55084133 2.3363369
1.3248335 -0.54973197 2.3380375
-1.1117699 -0.42827111 2.3484013
-1.0498371 -0.45046788 2.347641
-0.95161343 -0.44967538 2.3464541
-0.84898454 -0.44883516 2.3503897
-0.7492404 -0.44803634 2.3464561
-0.64985913 -0.4472172 2.3526058
-0.54925311 -0.446412 2.3483727
-0.45128381 -0.44562322 2.3463757
-0.33250776 -0.46240962 2.3194072
-0.2496265 -0.46623477 2.3120451
-0.14908223 -0.46387443 2.3166077
-0.049894463 -0.46366814 2.3184609
0.049918085 -0.46384874 2.3192716
0.14991452 -0.46398038 2.3203154
0.25010291 -0.46416762 2.3210549
0.35514751 -0.458682 2.3252757
0.45106056 -0.45105287 2.3180044
0.54973567 -0.45148847 2.3202438
0.6480965 -0.45063549 2.3224738
0.75030816 -0.44920909 2.3247895
0.85113698 -0.44862515 2.3270752
0.95058674 -0.44906017 2.3293324
1.0502311 -0.44949606 2.331594
1.1500682 -0.44993314 2.3338597
1.2501007 -0.45037073 2.3361299
1.3247119 -0.45069727 2.3378236
-1.1130805 -0.34999925 2.3490605
0.39029837 -0.35019425 2.3415523
0.45101848 -0.35078651 2.31779
0.54968506 -0.35112548 2.3200293
0.64854312 -0.35146505 2.3222728
0.74916273 -0.35078499 2.3245537
0.8510592 -0.35006374 2.326864
0.95099056 -0.34910583 2.3291287
1.0501338 -0.34864217 2.331377
1.1499611 -0.34898129 2.3336425
1.2499844 -0.34932029 2.3359118
1.324589 -0.34957394 2.337605
-1.1138717 -0.24896139 2.3476346
0.38981918 -0.25016487 2.339262
0.45097652 -0.25053883 2.317575
0.54963386 -0.25078088 2.3198142
0.64848304 -0.25102338 2.3220575
0.7496326 -0.25127143 2.3243523
0.85098201 -0.25152004 2.3266518
0.9499166 -0.25050658 2.3288949
1.0500394 -0.24990784 2.3311646
1.1498563 -0.25015053 2.3334291
1.2498703 -0.2503939 2.3356988
1.3246124 -0.24883935 2.3373914
-1.1146892 -0.14997755 2.3481126
0.38944414 -0.15005974 2.3363526
0.45093524 -0.15030979 2.3173611
0.54976523 -0.15028898 2.319603
0.64859158 -0.15076093 2.321846
0.74956292 -0.15074924 2.3241372
0.85090321 -0.15089838 2.326436
0.95032591 -0.15104476 2.328692
1.0499429 -0.15119126 2.3309526
1.1497519 -0.15133807 2.3332167
1.2497563 -0.15148544 2.3354855
1.3241941 -0.14988542 2.3371713
-1.1155382 -0.050033744 2.3495879
0.38901186 -0.050178375 2.3341835
0.45089346 -0.050099149 2.317147
0.55163366 -0.050148524 2.3194325
0.65046751 -0.05019702 2.3216734
0.74949354 -0.050245598 2.3239207
0.85082436 -0.050295305 2.3262215
0.95023698 -0.050344083 2.328475
1.0498441 -0.050392933 2.3307345
1.1496445 -0.050441891 2.3329999
1.2496396 -0.050490957 2.335269
1.324223 -0.050527498 2.336961
-1.1163758 0.049387392 2.3507824
0.38854209 0.051072501 2.3337533
0.45085198 0.050092943 2.3169327
0.55158257 0.050142359 2.3192177
0.6504072 0.050190803 2.3214595
0.74942398 0.050239399 2.3237057
0.85074502 0.050289102 2.3260043
0.95014912 0.050337844 2.3282597
1.0497475 0.050386664 2.3305185
1.1495372 0.050435621 2.3327825
1.2495233 0.05048465 2.3350511
1.3241 0.05052124 2.3367424
-1.117151 0.15001684 2.3487802
0.38761002 0.15008405 2.338388
0.45080984 0.15026645 2.3167176
0.55153155 0.15041471 2.3190033
0.65034711 0.15056007 2.3212445
0.74935442 0.15070584 2.3234901
0.85066599 0.15085471 2.325788
0.95006067 0.15100102 2.3280437
1.0496494 0.1511476 2.3303018
1.1494305 0.15129425 2.3325651
1.2494066 0.15144141 2.3348334
1.3239762 0.15155117 2.3365247
-1.1179577 0.25139415 2.3479125
0.38721004 0.2501654 2.3362696
0.4507682 0.2504214 2.3165042
0.55148023 0.25066847 2.3187885
0.6502865 0.25091076 2.3210294
0.74928498 0.25115341 2.3232741
0.85058755 0.25140187 2.3255723
0.94988769 0.25155774 2.3278258
1.0495536 0.24979116 2.3300891
1.1493255 0.25003365 2.3323524
1.2492926 0.25027677 2.3346207
1.3238553 0.25045809 2.3363111
-1.1187552 0.35010991 2.3475549
0.38683802 0.35031065 2.3338392
0.45072663 0.35055768 2.3162899
0.55142945 0.35090342 2.3185732
0.65022594 0.35124302 2.3208146
0.74921536 0.35158223 2.3230593
0.85010022 0.35037497 2.325351
0.94997406 0.35008052 2.3276174
1.0494573 0.34841666 2.3298774
1.1492209 0.34875479 2.3321395
1.2491785 0.34909394 2.3344069
1.3237343 0.34934694 2.3360977
-1.1196129 0.45004493 2.3494592
0.38643745 0.45053902 2.331851
0.45068502 0.45067582 2.3160758
0.55137837 0.45112026 2.3183582
0.65016598 0.45155612 2.3205998
0.74869823 0.45052779 2.3228366
0.85083234 0.44876087 2.3251584
0.94979972 0.44868672 2.3274035
1.0493608 0.44912207 2.3296614
1.1491139 0.44955823 2.3319232
1.2490623 0.4499951 2.3341889
1.3236108 0.45032105 2.3358803
-1.1183763 0.52876669 2.3510256
-1.0490907 0.5495671 2.346226
-0.95009446 0.55037832 2.3501406
-0.85225934 0.55116856 2.3491106
-0.74993879 0.55199432 2.347635
-0.65022045 0.55281103 2.3514163
-0.54957271 0.55361575 2.3467348
-0.45071322 0.55442142 2.3487647
-0.35098603 0.55523598 2.3516741
-0.23603056 0.5672096 2.322953
-0.14962749 0.57186884 2.3172379
-0.050667271 0.57181174 2.320029
0.049965117 0.57136589 2.323313
0.14989853 0.572052 2.3259749
0.24926025 0.57339859 2.3246465
0.35776827 0.56319112 2.3257885
0.45064354 0.55077559 2.3158615
0.55132723 0.55131829 2.3181443
0.64964193 0.55114168 2.3203754
0.74952018 0.5487963 2.3226469
0.8503536 0.54874432 2.3249338
0.94971102 0.54927611 2.3271868
1.0492626 0.5498085 2.3294437
1.1499137 0.55087066 2.3317249
1.2498118 0.55036253 2.3339927
1.3234878 0.55127621 2.3356624
-0.21926497 0.64878291 2.3004539
-0.14930686 0.65117818 2.3020372
-0.049316615 0.6509344 2.304306
0.049590942 0.64865887 2.3065548
0.14976346 0.64893931 2.3088267
0.24984588 0.6495769 2.3110952
0.35012501 0.6502161 2.3133695
0.45060143 0.65085655 2.3156481
0.55127662 0.65149778 2.3179297
0.65011698 0.64985359 2.3201756
0.74901021 0.64857614 2.3224227
0.85027444 0.64921743 2.324719
0.94962323 0.64984637 2.3269708
1.0491652 0.65047675 2.3292277
1.1510251 0.65112156 2.331538
1.2504601 0.65049362 2.3337941
1.3233669 0.6501103 2.3354492
-0.21453446 0.74772966 2.3003519
-0.14929321 0.7506538 2.3018253
-0.049807716 0.75138801 2.30408
0.049703181 0.74970788 2.3063421
0.14974973 0.74870664 2.3086138
0.24982268 0.74944192 2.3108821
0.35009259 0.75018048 2.3131549
0.45056009 0.75091875 2.315433
0.55114126 0.75157475 2.317714
0.65038049 0.74873883 2.3199708
0.74894077 0.74893141 2.322207
0.85019577 0.74967194 2.3245027
0.94953519 0.75039792 2.3267543
1.0490683 0.75112605 2.3290112
1.1504339 0.75048667 2.3313127
1.2513385 0.74920386 2.3336039
1.3232458 0.74892616 2.3352354
-0.2099224 0.84604025 2.3002465
-0.14927942 0.85010874 2.301614
-0.049803168 0.8509419 2.3038688
0.050323933 0.85106856 2.3061397
0.14965293 0.84854585 2.3083992
0.24979965 0.84929031 2.3106689
0.35006031 0.85012597 2.3129416
0.4505184 0.85096288 2.3152194
0.55086184 0.85120326 2.3174951
0.64992779 0.84844792 2.3197491
0.74887109 0.84926838 2.321991
0.85011709 0.85010809 2.3242867
0.94944686 0.85093117 2.3265388
1.048436 0.85081321 2.3287842
1.1512926 0.84908766 2.3311212
1.2507292 0.84922838 2.3333771
1.3231229 0.84982568 2.3350182
-0.20549965 0.94083005 2.3001451
-0.14926609 0.94747525 2.3014073
-0.04979866 0.94840372 2.3036609
0.049863771 0.94933385 2.3059201
0.14980529 0.94827157 2.3081894
0.2497766 0.94911927 2.3104558
0.35002789 0.95005298 2.3127277
0.45047653 0.95098835 2.3150058
0.55102521 0.95062482 2.3172877
0.64986759 0.94866943 2.3195343
0.74880159 0.94958645 2.3217766
0.85003811 0.95052505 2.3240712
0.94919723 0.95126933 2.3263195
1.049415 0.94929409 2.3285966
1.1507076 0.94911647 2.3308954
1.2506129 0.95003873 2.3331604
1.3229996 0.95070678 2.3348007
0.58258319 1.0002036 2.317898
0.64983612 1.0008614 2.3194225
0.74876571 1.001829 2.3216646
0.84999686 1.0028189 2.3239591
0.95286721 1.0034901 2.3262913
1.0488244 1.002668 2.32847
1.1506499 1.0036618 2.3307779
1.2505492 1.0046369 2.3330424
1.3229327 1.0053433 2.3346827
-1.1136407 -0.42592862 2.4155455
-1.0507578 -0.45031834 2.4148526
-0.94603163 -0.44945556 2.4211614
-0.84945792 -0.44868127 2.4178102
-0.75116807 -0.44789466 2.413831
-0.64121294 -0.44697562 2.4260643
-0.5501613 -0.44623402 2.427933
-0.44981319 -0.44543099 2.4238284
-0.34982443 -0.44463196 2.4192176
-0.24643162 -0.44378218 2.4245641
-0.15476026 -0.44302815 2.4295843
-0.050363924 -0.44218183 2.4299722
0.052999079 -0.44135013 2.427635
0.15048969 -0.44054848 2.4327836
0.25012684 -0.43975076 2.4287355
0.35103527 -0.43448132 2.4285953
-1.1145929 -0.35091102 2.4160745
0.38546753 -0.34948117 2.4321375
-1.1153564 -0.25002748 2.4134722
0.38450125 -0.25049499 2.4391282
-1.116213 -0.15012912 2.4153254
0.38379714 -0.15061036 2.4342482
-1.1170709 -0.050077222 2.4171822
0.38307416 -0.05036645 2.4300735
-1.1179268 0.051913802 2.4182537
0.38234088 0.047745463 2.4271197
-1.1186167 0.14696148 2.4144931
0.38137719 0.15012878 2.4327865
-1.1194193 0.2499765 2.4128568
0.38050243 0.25452802 2.4337995
-1.1202791 0.35023326 2.4147096
0.37967718 0.34965655 2.4359553
-1.1211302 0.44990706 2.4164066
0.37896106 0.44904771 2.4317765
-1.1190255 0.53034925 2.4182754
-1.0513606 0.54972315 2.4211035
-0.95089239 0.55052364 2.4154432
-0.84176499 0.55140263 2.4133348
-0.74994391 0.5521459 2.4130599
-0.64984161 0.55296451 2.4164362
-0.54941404 0.55378699 2.4202328
-0.44978151 0.55460227 2.4237964
-0.3471024 0.55543858 2.4257135
-0.24937677 0.55622047 2.4213977
-0.1499911 0.55703306 2.4246552
-0.050305575 0.55784959 2.4284897
0.05040466 0.55867386 2.4320788
0.15067779 0.55949372 2.4353664
0.25240809 0.56030869 2.4312911
0.35394534 0.54933053 2.4305604
