# .PCD v0.7 - Point Cloud Data file format
VERSION 0.7
FIELDS x y z
SIZE 4 4 4
TYPE F F F
COUNT 1 1 1
WIDTH 434
HEIGHT 1
VIEWPOINT 0 0 0 1 0 0 0
POINTS 434
DATA ascii
-1.3239741 -0.31907997 2.2999587
-1.3207325 -0.24182874 2.2998836
-1.3166465 -0.14592525 2.2997921
-1.3135254 -0.049388085 2.2996767
-1.2991091 -0.022791529 2.2999556
-1.3133467 0.049715936 2.2994897
-1.2958506 0.055654485 2.2998786
-1.3132386 0.1491369 2.2993002
-1.2916481 0.15193115 2.2997892
-1.3131304 0.24854146 2.299113
-1.2874868 0.25051698 2.2996933
-1.3130205 0.35000002 2.2989197
-1.2831651 0.35184604 2.2995977
-1.31291 0.45144182 2.2987266
-1.2787519 0.45308363 2.2995038
-1.3128016 0.55079651 2.2985373
-1.2745669 0.55225945 2.2994082
-1.312694 0.65013516 2.2983484
-1.2703791 0.65149093 2.2993119
-1.3125859 0.74945718 2.2981596
-1.2660961 0.75085205 2.2992184
-1.3124783 0.84876317 2.2979703
-1.2618223 0.85010123 2.2991242
-1.3123727 0.9459843 2.2977848
-1.2577494 0.94722837 2.2990308
-1.3140742 -0.61972934 2.3007643
-1.2506015 -0.62012023 2.3022153
-1.1488292 -0.61974001 2.3045399
-1.0498567 -0.6173811 2.3067973
-0.94856006 -0.61781764 2.309113
-0.84954339 -0.61842322 2.3113768
-0.75033158 -0.61903036 2.3136449
-0.65237045 -0.61873305 2.3158822
-0.55132192 -0.61815798 2.3181901
-0.45008135 -0.61784303 2.3205035
-0.35152885 -0.61728251 2.3227546
-0.25133729 -0.61789131 2.3250449
-0.15119706 -0.61649984 2.3273304
-0.05036008 -0.6170125 2.3296354
0.050426502 -0.61762267 2.3319395
0.15141262 -0.61823416 2.3342485
0.25027803 -0.61728501 2.3365059
0.34975624 -0.61521941 2.3387747
0.44921708 -0.61581749 2.341049
0.54887241 -0.61641663 2.3433273
0.65084821 -0.61703008 2.3456583
0.75011486 -0.61582041 2.3479242
0.84900194 -0.61610329 2.3501837
0.94999129 -0.61650896 2.3524933
1.0500667 -0.61518604 2.3547769
1.1476669 -0.61535341 2.3570075
1.2497669 -0.61425227 2.3593383
1.3315833 -0.61473918 2.3612089
-1.3139998 -0.55130029 2.3006341
-1.2503735 -0.5514769 2.3020883
-1.1505532 -0.5491879 2.3043652
-1.0502173 -0.54908109 2.3066576
-0.94938469 -0.54863894 2.3089607
-0.8494947 -0.5496791 2.3112454
-0.75028861 -0.55021834 2.313513
-0.65088785 -0.55075872 2.3157854
-0.55129147 -0.55130029 2.3180628
-0.45201349 -0.55098987 2.3203304
-0.35101268 -0.54896659 2.3226342
-0.25132301 -0.54874057 2.3249116
-0.15093932 -0.54928213 2.3272059
-0.050357282 -0.54982471 2.3295059
0.050423719 -0.55036843 2.3318093
0.15140419 -0.55091327 2.3341193
0.25004044 -0.55082333 2.3363719
0.3497375 -0.54987562 2.3386488
0.44928047 -0.55031532 2.340924
0.54884219 -0.54883444 2.3431959
0.65081173 -0.54937989 2.3455269
0.75085342 -0.54991585 2.3478143
0.84895599 -0.55044115 2.3500557
0.94922203 -0.55080813 2.3523481
1.0500094 -0.54939574 2.3546476
1.1486853 -0.54992193 2.356905
1.2497019 -0.55046064 2.3592148
1.3315127 -0.55089688 2.3610842
-1.3138918 -0.45178053 2.3004451
-1.2505766 -0.44983068 2.3018878
-1.1499593 -0.44836342 2.3041832
-1.051351 -0.4488022 2.3064377
-0.95048797 -0.44925073 2.3087437
-0.84942454 -0.44970036 2.3110542
-0.75022686 -0.45014155 2.3133221
-0.65083385 -0.45058358 2.3155937
-0.55124545 -0.45102677 2.3178699
-0.45146152 -0.45147049 2.3201506
-0.35198203 -0.45062551 2.3224232
-0.25077176 -0.44928545 2.3247321
-0.15092665 -0.44861296 2.3270123
-0.050353121 -0.44905609 2.3293114
0.050419431 -0.44950029 2.3316152
0.15139166 -0.44994512 2.3339241
0.2504532 -0.45038199 2.3361881
0.34970871 -0.45081916 2.3384573
0.44988963 -0.45066518 2.3407457
0.54960585 -0.4500784 2.3430228
0.65075833 -0.4500322 2.3453333
0.75079137 -0.45047095 2.34762
0.84932381 -0.44941089 2.3498693
0.94930679 -0.44922182 2.352155
1.0499235 -0.44966114 2.3544555
1.1485896 -0.45009199 2.3567104
1.2495972 -0.45053297 2.359019
1.3314024 -0.45089021 2.3608885
-1.3130534 -0.3524276 2.3002717
-1.2503202 -0.34835148 2.3016977
-1.1498654 -0.34869877 2.3039944
-1.0512637 -0.34903976 2.3062477
-0.95040894 -0.34938845 2.3085532
-0.84935421 -0.34973809 2.3108625
-0.75016487 -0.35008129 2.3131301
-0.65078008 -0.35042533 2.3154025
-0.55119991 -0.35076964 2.3176785
-0.45142391 -0.35111439 2.3199587
-0.35145181 -0.35146052 2.3222437
-0.25181058 -0.35086694 2.3245194
-0.15091442 -0.35005742 2.326823
-0.049849685 -0.34907198 2.3291297
0.050415259 -0.34864894 2.3314209
0.1513789 -0.34899408 2.3337281
0.25043225 -0.34933278 2.3359928
0.34967941 -0.3496716 2.3382611
0.45123652 -0.35001877 2.3405821
0.55087233 -0.35035971 2.34286
0.65070504 -0.35070038 2.3451414
0.75072986 -0.35104266 2.3474276
0.8483699 -0.34992242 2.3496573
0.94922781 -0.34960148 2.3519609
1.0498366 -0.34994322 2.3542607
1.1487855 -0.35004026 2.3565216
1.2497649 -0.35085469 2.3588307
1.331293 -0.3508997 2.360693
-1.3090444 -0.25311109 2.3001723
-1.2502174 -0.24880186 2.3015075
-1.1497698 -0.24905007 2.3038046
-1.0511769 -0.24929367 2.3060579
-0.9503305 -0.24954285 2.3083625
-0.84928399 -0.2497925 2.310672
-0.75010234 -0.25003758 2.3129387
-0.65072614 -0.25028309 2.3152106
-0.55115432 -0.25052902 2.3174853
-0.45138657 -0.25077564 2.3197658
-0.3514224 -0.25102252 2.3220503
-0.25126094 -0.25127 2.3243396
-0.15090208 -0.25151798 2.3266332
-0.050849423 -0.25047445 2.3289165
0.05041115 -0.24991469 2.3312294
0.15136655 -0.25016209 2.3335376
0.25041163 -0.2504048 2.3358014
0.34973466 -0.24862568 2.3380675
0.451199 -0.24878806 2.3403864
0.55082726 -0.24903013 2.342663
0.65065014 -0.24927245 2.3449454
0.75066668 -0.24951553 2.3472307
0.85027546 -0.24931462 2.3495061
0.95064539 -0.25045228 2.3518023
1.0497495 -0.25024223 2.3540666
1.1505476 -0.25048709 2.3563707
1.2515421 -0.25073248 2.3586769
1.3311824 -0.25092596 2.3604984
-1.3049612 -0.15824021 2.3000827
-1.250114 -0.14926903 2.3013189
-1.1496753 -0.1494181 2.3036151
-1.0512067 -0.14817148 2.3129299
-0.95024687 -0.16655193 2.3103127
-0.84920698 -0.16669586 2.3121786
-0.75007474 -0.16683404 2.3140168
-0.64994061 -0.1658854 2.3185964
-0.55102527 -0.16534345 2.3220546
-0.45127997 -0.1653903 2.3235831
-0.35132739 -0.16552772 2.3254235
-0.25121877 -0.16566712 2.3272963
-0.15082368 -0.16573031 2.3292799
-0.050271466 -0.16594636 2.331048
0.050447993 -0.16600829 2.3330081
0.15132827 -0.16622701 2.3348207
0.2503829 -0.16620104 2.3367565
0.34959903 -0.16440949 2.3385761
0.45604104 -0.15678406 2.3416882
0.55078167 -0.14982806 2.3424711
0.6505968 -0.14997382 2.3447528
0.75060523 -0.15012017 2.3470383
0.85081005 -0.15026657 2.3493276
0.95120913 -0.15041329 2.3516214
1.0496628 -0.15055728 2.3538718
1.1504524 -0.15070455 2.3561754
1.2514377 -0.15085225 2.3584833
1.3310727 -0.1509686 2.3603029
-1.3032805 -0.09738344 2.300004
-1.2490946 -0.050256234 2.3011515
-1.14958 -0.04980237 2.3034239
-1.0523473 -0.049905207 2.3224232
0.48219654 -0.050336361 2.3471701
0.55073649 -0.050642442 2.3422785
0.65054309 -0.050691731 2.3445592
0.75054324 -0.05074114 2.3468451
0.85074002 -0.050790653 2.3491335
0.95113105 -0.050840259 2.3514287
1.0495763 -0.050888889 2.353677
1.1503575 -0.050938677 2.3559809
1.2513355 -0.050988592 2.3582883
1.3309623 -0.051027924 2.3601079
-1.2449924 0.04911514 2.301054
-1.1494859 0.049796868 2.3032346
-1.0525084 0.049707845 2.3222096
0.4815684 0.0515978 2.3486147
0.55069041 0.050636776 2.342083
0.65048867 0.050686065 2.3443627
0.75048065 0.050735451 2.3466475
0.85066855 0.050784983 2.3489368
0.9510507 0.050834544 2.3512318
1.0494881 0.050883163 2.3534794
1.1502604 0.050932959 2.3557835
1.2512298 0.050982848 2.3580894
1.3308502 0.051022191 2.3599086
-1.2406206 0.14863808 2.3009615
-1.1493908 0.14937967 2.303045
-1.0532873 0.14966643 2.3198781
0.48065436 0.1497875 2.351167
0.55064476 0.14978957 2.3418896
0.65043545 0.14993548 2.3441701
0.7504189 0.15008153 2.3464539
0.85059822 0.15022798 2.3487442
0.95097274 0.15037468 2.3510365
1.0494019 0.15051842 2.3532858
1.1501658 0.15066564 2.3555877
1.2511253 0.1508133 2.3578944
1.33074 0.15092954 2.3597133
-1.2364271 0.248059 2.3008654
-1.1492962 0.24894619 2.3028553
-1.0533035 0.24943103 2.3200667
0.48067105 0.24907047 2.3501868
0.55060011 0.24892613 2.3416984
0.6503818 0.24916837 2.3439784
0.75035697 0.24941121 2.3462615
0.85052872 0.2496544 2.3485501
0.95089412 0.24989814 2.3508437
1.049315 0.25013715 2.3530915
1.1500702 0.25038195 2.3553932
1.2510227 0.25062698 2.3576989
1.3306302 0.25082034 2.3595181
-1.2324622 0.34823936 2.3007638
-1.1492015 0.34849572 2.3026657
-1.05339 0.34920394 2.3200622
0.48056468 0.34985688 2.3498213
0.5505538 0.35015497 2.3415022
0.65032727 0.35049593 2.3437808
0.75029391 0.35083786 2.3460655
0.85037172 0.35109475 2.34835
0.95081609 0.34940553 2.3506489
1.0492285 0.34973976 2.3528979
1.1499759 0.35008174 2.3551989
1.2509189 0.35042456 2.3575063
1.3305198 0.35069478 2.3593237
-1.22744 0.4494248 2.3006833
-1.1494335 0.44968313 2.3024654
-1.0533721 0.44907406 2.3203201
0.48042002 0.45078728 2.349257
0.55015868 0.45092192 2.3412986
0.65027386 0.449696 2.3435891
0.75023246 0.45013422 2.3458717
0.85047567 0.45048171 2.348161
0.95073789 0.44889629 2.3504558
1.0491419 0.44932541 2.3527045
1.1498806 0.44976488 2.3550045
1.2508156 0.4502053 2.3573101
1.3304098 0.45055252 2.3591282
-1.2235324 0.54999781 2.3005779
-1.1486732 0.55124855 2.3022869
-1.0539522 0.5499109 2.3198855
0.4802703 0.54994786 2.3489141
0.55082089 0.54998225 2.3411231
0.65022063 0.54887944 2.3433959
0.75017059 0.54941434 2.3456793
0.85031724 0.54995012 2.3479679
0.95065761 0.55048668 2.3502586
1.0489689 0.55092436 2.3525038
1.1497862 0.54943198 2.3548107
1.2507123 0.54996973 2.3571165
1.3302995 0.55039394 2.3589334
-1.2193491 0.64920157 2.300483
-1.1489137 0.65119314 2.3020878
-1.0534606 0.65083319 2.3203588
0.48021534 0.64906663 2.3482339
0.55041748 0.64952463 2.3409224
0.65016598 0.65015674 2.3431997
0.75010759 0.65079045 2.3454816
0.84970468 0.65029866 2.3477588
0.95057869 0.6499446 2.3500657
1.0490561 0.65047073 2.3523142
1.1496917 0.64908212 2.3546164
1.25061 0.64971775 2.3569205
1.3301901 0.65021849 2.3587382
-1.2151058 0.74807072 2.3003893
-1.1488187 0.75067687 2.3018985
-1.0535971 0.75081474 2.3205752
0.48010975 0.75005829 2.3477895
0.55037159 0.75068694 2.3407254
0.64958638 0.75055683 2.3429923
0.75004596 0.75003761 2.3452904
0.85071617 0.74960482 2.3475912
0.95050138 0.74938601 2.3498714
1.0488808 0.75010157 2.3521173
1.1495948 0.7508353 2.3544176
1.2505065 0.74945015 2.3567266
1.3300798 0.75002724 2.3585434
-1.2127306 0.84568965 2.3002558
-1.1506095 0.85028082 2.3016658
-1.0490396 0.85103327 2.3178837
-0.9495936 0.87362075 2.3251743
-0.84904599 0.87256759 2.3280559
-0.74982387 0.87310839 2.330008
-0.65006071 0.87372804 2.331588
-0.55028754 0.87437588 2.333107
-0.45134702 0.87448585 2.3352003
-0.35082754 0.87393212 2.3375132
-0.25076234 0.87453943 2.3392537
-0.15055932 0.87514645 2.3408322
-0.050222173 0.87577063 2.3423567
0.04929056 0.87539905 2.3446658
0.15057616 0.87534052 2.3470447
0.24996623 0.8758176 2.348809
0.34950915 0.8765828 2.3502827
0.45894697 0.86174655 2.3467064
0.55002367 0.85010129 2.3405259
0.65058768 0.84965491 2.3428254
0.74998438 0.84926862 2.3450973
0.85010588 0.85009646 2.347383
0.95042098 0.85092622 2.3496735
1.0487944 0.84962225 2.351923
1.1494994 0.85045326 2.354224
1.250403 0.84916419 2.3565311
1.3299705 0.84981865 2.3583486
-1.2089211 0.94238043 2.3001561
-1.1506805 0.94750458 2.3014774
-1.0501356 0.94844919 2.3037722
-0.95098525 0.94900805 2.3060367
-0.85008764 0.94858319 2.3083436
-0.74935818 0.94919658 2.3106437
-0.65007961 0.9501279 2.312911
-0.55060691 0.95106071 2.3151815
-0.45099235 0.95034516 2.3174591
-0.35107344 0.94875622 2.3197451
-0.25101149 0.9496901 2.3220308
-0.15075211 0.95062679 2.3243196
-0.050643362 0.95113939 2.3266063
0.0508609 0.94908148 2.3289294
0.15121643 0.94925022 2.3312228
0.25016296 0.95016956 2.3334813
0.34930336 0.95109147 2.3357451
0.45066339 0.95002049 2.3380635
0.55057532 0.94910258 2.340348
0.65000474 0.9496696 2.3426192
0.74992132 0.95059395 2.3449008
0.84952229 0.95021677 2.3471768
0.95034349 0.95033461 2.3494802
1.0487083 0.94912565 2.3517301
1.149405 0.95005405 2.3540299
1.2498963 0.95044369 2.3563261
1.3298599 0.94959408 2.3581541
-0.42389965 1.0002402 2.3179824
-0.35105836 1.0009578 2.3196454
-0.25100061 1.0019436 2.3219306
-0.15074553 1.0029314 2.3242185
-0.043428883 1.0032662 2.3266706
0.05035888 1.0028163 2.3288147
0.15120949 1.0038078 2.3311174
0.25015181 1.0047807 2.3333762
0.34928739 1.0057555 2.3356395
0.45141613 1.0047141 2.3379748
0.55025518 1.0056244 2.3402314
0.64997435 1.0066028 2.3425083
0.74988621 1.007583 2.3447895
0.85330331 1.0071402 2.3471532
0.95029807 1.0074345 2.3493693
1.0486563 1.0083973 2.3516145
1.1493484 1.0093832 2.3539135
1.2524734 1.0097433 2.3562696
1.3297951 1.0090275 2.3580379
-1.0293456 -0.12140912 2.4285951
-0.95078886 -0.13706763 2.4151037
-0.8488729 -0.13677204 2.4098947
-0.74959546 -0.13648406 2.4048212
-0.67924017 -0.13627999 2.4012256
-0.50469255 -0.13562216 2.467983
-0.44858834 -0.1354596 2.4650247
-0.35014087 -0.13517438 2.4598348
-0.2498855 -0.13488391 2.4545484
-0.1500569 -0.13459468 2.4492853
-0.050658651 -0.13430668 2.4440446
0.05051145 -0.13401373 2.4387133
0.15124194 -0.13372274 2.4334183
0.25153613 -0.13343312 2.4281483
0.35139686 -0.13314477 2.4229009
0.45876384 -0.12154524 2.4356997
-1.0316041 -0.050374869 2.4313643
0.46855107 -0.050167393 2.4418275
-1.0319127 0.051478349 2.4313128
0.46820632 0.047569148 2.4438918
-1.0321181 0.15015993 2.4271612
0.46776715 0.15058218 2.4493811
-1.0323772 0.24736592 2.4255481
0.46749896 0.25028354 2.4478438
-1.0326424 0.34974906 2.4235201
0.46722558 0.34986809 2.4465444
-1.0329587 0.44943655 2.4240808
0.46695906 0.44987336 2.4448912
-1.0332812 0.54963213 2.4248443
0.46667838 0.55033159 2.4438038
-1.0336077 0.65032512 2.4256957
0.46641785 0.65011483 2.441927
-1.0339271 0.75019956 2.4263544
0.4661366 0.74978107 2.4409668
-1.0282168 0.8422628 2.4264944
-0.95034921 0.86295927 2.4252524
-0.85014451 0.86326087 2.4261003
-0.74986964 0.86356288 2.4269488
-0.64996892 0.86386323 2.4275761
-0.55000222 0.86416405 2.4283197
-0.44908845 0.86448061 2.4352949
-0.34970996 0.86478055 2.4365089
-0.2499374 0.86508083 2.4372168
-0.15008225 0.86538184 2.4381123
-0.050173562 0.86568278 2.4389126
0.050196949 0.86598516 2.4397645
0.150245 0.86628681 2.4406617
0.25000939 0.86658728 2.4415061
0.35020438 0.86688954 2.4424047
0.44524947 0.85547501 2.4417837
