# .PCD v0.7 - Point Cloud Data file format
VERSION 0.7
FIELDS x y z
SIZE 4 4 4
TYPE F F F
COUNT 1 1 1
WIDTH 532
HEIGHT 1
VIEWPOINT 0 0 0 1 0 0 0
POINTS 532
DATA ascii
-1.3069149 -0.92325252 2.2774522
-1.2512207 -0.92299068 2.2787271
-1.1507326 -0.92264789 2.2810283
-1.0515876 -0.92333996 2.2833021
-0.9482137 -0.92184734 2.2856665
-0.8491714 -0.92131841 2.2879343
-0.75176871 -0.92061633 2.2901652
-0.6505332 -0.92108577 2.2924845
-0.5511899 -0.92102027 2.2947598
-0.44996855 -0.91943359 2.297075
-0.36201715 -0.9194243 2.2990901
-1.3068326 -0.84933925 2.2773085
-1.2500942 -0.84982431 2.2786095
-1.1506619 -0.85067451 2.2808881
-1.0505311 -0.8502754 2.2831824
-0.94957125 -0.84977293 2.2854936
-0.84911895 -0.84912771 2.2877936
-0.75092965 -0.84996319 2.2900448
-0.65049469 -0.85081768 2.2923467
-0.54935747 -0.85070902 2.2946634
-0.45152915 -0.84907806 2.2969012
-0.35894606 -0.84838372 2.299021
-1.3067228 -0.75080222 2.277117
-1.2495091 -0.75047618 2.2784278
-1.1505631 -0.74992746 2.2806935
-1.051438 -0.74945962 2.282963
-0.94907433 -0.74938482 2.2853079
-0.84904724 -0.75013709 2.2875998
-0.75086629 -0.75087535 2.289851
-0.64991605 -0.7506206 2.2921627
-0.55030984 -0.74938697 2.2944422
-0.45103964 -0.74898833 2.2967157
-0.35461408 -0.74895614 2.2989244
-1.3066108 -0.65022975 2.2769213
-1.2503554 -0.64987719 2.2782104
-1.1504642 -0.64919567 2.2804976
-1.0508487 -0.6498459 2.2827802
-0.94899458 -0.65051043 2.2851157
-0.84897578 -0.65116316 2.2874069
-0.75058573 -0.64998996 2.2896583
-0.65090489 -0.64941847 2.2919419
-0.5497635 -0.64897949 2.2942567
-0.45100144 -0.64961958 2.2965217
-0.35073373 -0.64979637 2.2988181
-0.29629189 -0.60915959 2.2999854
-1.3064986 -0.54967368 2.2767272
-1.2497752 -0.54998761 2.2780266
-1.1503671 -0.55053782 2.2803056
-1.0507601 -0.55108881 2.2825887
-0.95067906 -0.54991448 2.2848783
-0.85094482 -0.55013317 2.287164
-0.75095934 -0.54888803 2.2894521
-0.65032732 -0.54917359 2.2917573
-0.54971719 -0.54972601 2.2940633
-0.45096314 -0.55026841 2.2963259
-0.34994963 -0.55082303 2.2986414
-0.29402113 -0.54133075 2.2999041
-1.3063893 -0.45118693 2.276536
-1.2493417 -0.44979036 2.2778392
-1.1525729 -0.45151675 2.2805777
-1.0507134 -0.47111487 2.2833483
-0.95130205 -0.46973881 2.2852461
-0.85078269 -0.46984002 2.2871068
-0.75068635 -0.47021556 2.2893035
-0.64954555 -0.47002888 2.2917745
-0.54972118 -0.46912673 2.2940743
-0.45093209 -0.46955729 2.2961683
-0.34992567 -0.47003055 2.2984831
-0.29087734 -0.46811715 2.2998323
-1.3062773 -0.35066548 2.2763414
-1.2498959 -0.34923571 2.2776296
-1.1566938 -0.34919763 2.2808204
-1.3061652 -0.25016105 2.2761464
-1.2494557 -0.25030395 2.2774451
-1.1566931 -0.2503742 2.2808111
-1.3060535 -0.14967404 2.2759507
-1.2493484 -0.14975943 2.2772503
-1.1571569 -0.15012692 2.2806597
-1.3059412 -0.049204137 2.2757559
-1.2492415 -0.049232226 2.2770545
-1.1583866 -0.049293887 2.2799413
-1.3058319 0.049198631 2.2755642
-1.249137 0.049226709 2.2768638
-1.1583886 0.049294047 2.2799466
-1.3057199 0.14963436 2.2753704
-1.2490298 0.14971982 2.2766688
-1.1584494 0.14983472 2.2799191
-1.3056083 0.25005305 2.2751751
-1.2489225 0.25019568 2.2764733
-1.1584094 0.25037771 2.2800014
-1.3054965 0.35045439 2.2749805
-1.2490304 0.35041609 2.2762735
-1.1587642 0.34857881 2.2798948
-1.3053846 0.45083863 2.274786
-1.2484874 0.45084178 2.2760892
-1.1601406 0.44942403 2.2790608
-1.3052754 0.54915762 2.2745945
-1.2497653 0.54897457 2.2758663
-1.1550978 0.55326605 2.2786994
-1.0498146 0.57542574 2.2812827
-0.95010579 0.57602543 2.2836659
-0.85018647 0.57662672 2.2860532
-0.75019485 0.57891929 2.2873037
-0.65038013 0.57787454 2.2895398
-0.54918861 0.57810181 2.2918582
-0.45054141 0.57868713 2.2941816
-0.3498376 0.5793705 2.2965968
-0.24849366 0.58190811 2.298738
-0.19607939 0.58484775 2.2999334
-1.3051633 0.64950782 2.2744007
-1.2505221 0.64986479 2.2756507
-1.1514341 0.65027511 2.2779202
-1.0496855 0.64912504 2.2802534
-0.94997966 0.64977467 2.2825363
-0.85007423 0.65042597 2.2848232
-0.74996912 0.65107822 2.2871146
-0.64938545 0.64999133 2.2894218
-0.54956734 0.64973634 2.291708
-0.45050204 0.64889944 2.2939799
-0.34959164 0.64955294 2.2962902
-0.24847905 0.65020782 2.2986047
-0.19287151 0.65678024 2.2998655
-1.3050518 0.74984086 2.2742052
-1.2504151 0.75025308 2.2754567
-1.1508976 0.75074881 2.2777348
-1.049595 0.74971628 2.2800579
-0.9502238 0.75004965 2.2823329
-0.85000253 0.74916196 2.2846308
-0.74990606 0.7499128 2.286922
-0.64960694 0.75066525 2.2892182
-0.54868889 0.75080359 2.2915294
-0.45061466 0.74992919 2.2937782
-0.34956202 0.74878466 2.2960958
-0.24845815 0.74953908 2.2984092
-0.18867435 0.75369835 2.2997711
-1.3049403 0.85015655 2.2740109
-1.2506763 0.85012394 2.275254
-1.151023 0.84942365 2.2775383
-1.0495045 0.8502903 2.2798619
-0.94948453 0.85070169 2.2821517
-0.84992969 0.8499375 2.284435
-0.75025916 0.84934568 2.2867186
-0.64955181 0.84958357 2.2890251
-0.54906106 0.85043734 2.2913253
-0.4502677 0.85109794 2.2935874
-0.34975052 0.84982419 2.295893
-0.24843687 0.84885359 2.2982149
-0.18448023 0.85219252 2.2996733
-1.3048376 0.94226843 2.2738326
-1.2497603 0.94225955 2.2750936
-1.150932 0.94167829 2.277359
-1.049422 0.94263875 2.2796819
-0.94974202 0.94358248 2.2819633
-0.84986079 0.9445278 2.28425
-0.74931437 0.94400156 2.2865546
-0.6494993 0.94436401 2.2888393
-0.54901695 0.94531298 2.2911401
-0.45038784 0.94624394 2.2933977
-0.34925675 0.94694114 2.2957127
-0.24841629 0.94608319 2.2980239
-0.18039089 0.94863206 2.2995782
-0.31075612 -0.91929936 2.3002644
-0.24881172 -0.91856009 2.3016818
-0.1494315 -0.91946948 2.3039601
-0.050454915 -0.91858071 2.3062258
0.049920097 -0.91713119 2.3085217
0.14842077 -0.91704732 2.3107786
0.25006321 -0.91686839 2.3131065
0.34973541 -0.91754168 2.3153908
0.45260236 -0.9157688 2.3177433
0.54967004 -0.91540712 2.3199663
0.64722484 -0.91477317 2.3222001
0.74969566 -0.91512161 2.324548
0.84926689 -0.91530728 2.3268297
0.95217127 -0.91340756 2.3291831
1.0501566 -0.9136287 2.3314278
1.1499959 -0.91242212 2.3337126
1.2500343 -0.91331887 2.3360057
1.3243232 -0.91382265 2.3377087
-0.30755776 -0.85325688 2.3002076
-0.24879718 -0.85008556 2.3015478
-0.14942278 -0.85092735 2.3038249
-0.049547628 -0.85115361 2.3061142
0.049917173 -0.84845293 2.3083868
0.14988369 -0.84929502 2.310678
0.25004897 -0.85013938 2.3129752
0.35041368 -0.85098475 2.3152761
0.45047817 -0.85106486 2.3175678
0.54963875 -0.84848082 2.3198342
0.64849508 -0.84930938 2.3221009
0.74965405 -0.85015774 2.3244193
0.85101521 -0.8510077 2.3267424
0.94998622 -0.85048831 2.3290093
1.0505773 -0.84915793 2.3313107
1.1499339 -0.8493064 2.3335872
1.2499667 -0.85014117 2.3358793
1.3245802 -0.8507635 2.33759
-0.30344555 -0.75769347 2.3001139
-0.24877612 -0.75050014 2.3013513
-0.14941002 -0.7512424 2.3036296
-0.049722642 -0.75033742 2.305912
0.049912963 -0.74857163 2.3081906
0.14987099 -0.74931443 2.3104815
0.25002778 -0.75005919 2.3127775
0.35038367 -0.75080478 2.3150778
0.45093951 -0.75155199 2.3173833
0.55010492 -0.74908459 2.3196495
0.64844042 -0.74883574 2.3219013
0.74959016 -0.74958211 2.3242207
0.85094184 -0.7503317 2.3265433
0.95037895 -0.75106674 2.3288221
1.0495254 -0.75041842 2.3310919
1.1503488 -0.74950516 2.3334
1.2498593 -0.74906868 2.3356788
1.3244662 -0.74961829 2.337389
-0.3004421 -0.68169284 2.3000331
-0.24842268 -0.651223 2.3011656
-0.14939748 -0.65157503 2.3034339
-0.050268069 -0.64911795 2.3056996
0.04990872 -0.64870661 2.3079939
0.14985822 -0.64935058 2.3102849
0.25000623 -0.64999563 2.3125799
0.35035384 -0.6506421 2.3148799
0.45090067 -0.65128958 2.3171847
0.55076432 -0.6505453 2.3194704
0.65020794 -0.64877641 2.3217456
0.7495259 -0.64902425 2.3240216
0.85086936 -0.64967263 2.3263435
0.95029718 -0.65030891 2.3286221
1.0499215 -0.65094697 2.3309057
1.1492298 -0.65068972 2.3331795
1.249754 -0.65012097 2.3354824
1.3245822 -0.64923704 2.3371947
-0.24498823 -0.55220991 2.3010485
-0.14888164 -0.55078185 2.3032472
-0.049921282 -0.54840487 2.3055093
0.049904421 -0.54885906 2.3077974
0.14984556 -0.54940385 2.3100882
0.24998501 -0.54994965 2.3123827
0.35032356 -0.55049652 2.3146818
0.45086229 -0.55104446 2.3169863
0.55160117 -0.5515933 2.3192949
0.65058464 -0.54985213 2.3215597
0.74946141 -0.54848337 2.3238215
0.85079604 -0.5490312 2.3261445
0.95021534 -0.54956907 2.3284225
1.0498309 -0.55010802 2.3307059
1.1496414 -0.55064774 2.332993
1.2496487 -0.55118889 2.3352842
1.3240088 -0.55027133 2.3369863
-1.1217868 -0.42601511 2.3495262
-1.0498307 -0.44470313 2.3508146
-0.94959068 -0.44387177 2.3461831
-0.84843111 -0.4430109 2.3517554
-0.74983293 -0.44218978 2.3488009
-0.65291142 -0.44137993 2.347151
-0.55065453 -0.44051328 2.3511884
-0.44974244 -0.43967694 2.3463616
-0.34742644 -0.43880934 2.3506534
-0.24373128 -0.46177617 2.3141994
-0.15006062 -0.46160221 2.3136768
-0.049827248 -0.46086946 2.3147802
0.049963132 -0.46100882 2.3157613
0.15051815 -0.46047002 2.3190396
0.25004533 -0.46008191 2.3217943
0.35327095 -0.45564574 2.322341
0.45082384 -0.45081621 2.3167884
0.55155396 -0.45126548 2.319097
0.65014982 -0.45144197 2.3213561
0.74939859 -0.4500536 2.3236272
0.85072368 -0.44840711 2.3259451
0.95013404 -0.44884631 2.3282228
1.0497411 -0.44928619 2.3305056
1.1495423 -0.44972721 2.3327916
1.2495408 -0.45016888 2.3350844
1.3241286 -0.45049855 2.3367937
-1.1242574 -0.34991616 2.350322
0.384031 -0.35020101 2.3291497
0.45078516 -0.35060513 2.3165908
0.5515067 -0.35095415 2.3188984
0.65032399 -0.35129714 2.3211639
0.74933594 -0.35164052 2.323432
0.85065198 -0.34989566 2.3257492
0.95029283 -0.34995511 2.3280323
1.0496502 -0.34848201 2.3303049
1.1494434 -0.34882399 2.3325908
1.2494335 -0.3491666 2.3348818
1.3240145 -0.34942192 2.3365915
-1.1251096 -0.25092542 2.3510346
0.38345402 -0.24908938 2.329886
0.45074695 -0.25041103 2.3163929
0.55145955 -0.25066039 2.3186998
0.65026832 -0.25090513 2.3209646
0.74927145 -0.25115046 2.3232334
0.85058069 -0.25140134 2.3255548
0.9497425 -0.25138327 2.3278258
1.0495628 -0.24979453 2.3301089
1.1493466 -0.25003961 2.3323951
1.2493281 -0.25028518 2.3346858
1.3239026 -0.2504684 2.3363945
-1.1259116 -0.14934315 2.3486059
0.38249263 -0.15005954 2.3328545
0.45070824 -0.15023406 2.3161952
0.55141252 -0.1503837 2.3185024
0.65021282 -0.15053052 2.3207657
0.74920702 -0.15067773 2.3230343
0.8505075 -0.15082818 2.3253543
0.94989258 -0.15097582 2.327632
1.0494746 -0.15112384 2.3299134
1.14925 -0.15127215 2.3321986
1.2492226 -0.15142061 2.3344901
1.3237908 -0.15153138 2.3361983
-1.1267 -0.049965397 2.3463809
0.38218355 -0.049986131 2.3307998
0.45066965 -0.050074223 2.3159971
0.55136514 -0.050124098 2.3183043
0.65015709 -0.050173022 2.3205671
0.74914306 -0.050222035 2.322835
0.85043484 -0.050272219 2.3251548
0.9498111 -0.05032143 2.3274312
1.0493842 -0.050370768 2.3297133
1.1491511 -0.050420169 2.3319988
1.2491156 -0.050469685 2.3342884
1.3236771 -0.050506618 2.3359964
-1.1275861 0.050017808 2.3482265
0.3818326 0.050140291 2.3289838
0.45063114 0.05006852 2.3158
0.55131793 0.050118372 2.3181055
0.65010184 0.050167315 2.3203683
0.74907899 0.050216332 2.3226359
0.85036176 0.050266471 2.3249562
0.94972968 0.050315689 2.3272319
1.0492946 0.050364986 2.3295131
1.149052 0.050414395 2.3317971
1.2490078 0.050463896 2.3340869
1.3235631 0.050500832 2.3357956
-1.1284763 0.14994375 2.3502514
0.38154408 0.15031147 2.3272815
0.45059273 0.15019412 2.3156013
0.55127096 0.15034373 2.3179083
0.65004575 0.1504906 2.3201699
0.74901503 0.15063745 2.3224373
0.85028929 0.15078799 2.3247564
0.94964832 0.15093561 2.3270326
1.0492042 0.15108339 2.3293128
1.1509084 0.1513956 2.3316422
1.2508438 0.15121603 2.3339312
1.323449 0.15149084 2.3355942
-1.1293454 0.24934854 2.3515334
0.38111216 0.25100869 2.32687
0.45055437 0.25030267 2.315403
0.55122364 0.25055191 2.317709
0.64999026 0.25079644 2.3199718
0.74895072 0.25104132 2.3222389
0.85021585 0.25129217 2.324558
0.9495666 0.25153816 2.3268325
1.0486052 0.25049311 2.3291037
1.1509817 0.24993695 2.3314495
1.2509234 0.2501823 2.3337386
1.3233374 0.25036013 2.3353977
-1.1301254 0.3510341 2.3481212
0.37994206 0.35042521 2.3309109
0.45051596 0.3503941 2.3152061
0.55117702 0.35074282 2.3175118
0.64993435 0.35108531 2.3197732
0.748887 0.35142803 2.3220387
0.84970134 0.35118517 2.3243492
0.94948697 0.35002828 2.3266373
1.0495311 0.34904066 2.3289306
1.1508849 0.34862232 2.3312535
1.2508173 0.34896466 2.3335416
1.3232254 0.34921268 2.3352001
-1.1309228 0.45026258 2.3463705
0.37977648 0.45028731 2.3286362
0.45047727 0.45046833 2.3150091
0.55112982 0.45091698 2.3173137
0.64987886 0.45135677 2.3195748
0.74838161 0.45120394 2.3218315
0.8505218 0.44952863 2.3241751
0.94940692 0.44850162 2.3264422
1.0489373 0.44894075 2.3287199
1.1507859 0.44939068 2.3310533
1.2507105 0.44983149 2.3333414
1.3231117 0.45015115 2.3349986
-1.1280575 0.53394967 2.3488917
-1.0522476 0.55531698 2.3507247
-0.94991463 0.55616844 2.3476999
-0.85012019 0.55701244 2.3509595
-0.74977541 0.55784243 2.3459048
-0.64968139 0.55868834 2.3489082
-0.55024713 0.55952871 2.3519046
-0.44997016 0.56035948 2.3473887
-0.3498472 0.56120545 2.3503451
-0.24966373 0.5620349 2.3456392
-0.14801046 0.57441914 2.320616
-0.049933176 0.5753898 2.3227553
0.049436219 0.57521039 2.321456
0.14979146 0.57576555 2.3241243
0.24994017 0.57644653 2.3270032
0.35881159 0.56073231 2.3262904
0.45043898 0.55052572 2.3148108
0.55108243 0.55107373 2.3171153
0.64982337 0.55161142 2.3193765
0.74896961 0.5497033 2.321651
0.85000014 0.54851621 2.3239677
0.9493261 0.54905319 2.3262427
1.048848 0.54959089 2.3285208
1.1506867 0.55014116 2.3308525
1.2506022 0.55068135 2.3331401
1.322998 0.55107236 2.3347988
-0.14358397 0.65008312 2.3010075
-0.049787603 0.6514945 2.3031533
0.049557529 0.64955503 2.3054333
0.14969239 0.6486308 2.3077288
0.24972956 0.64927453 2.3100185
0.34996513 0.64991945 2.3123136
0.45040041 0.65056586 2.3146138
0.55103552 0.65121341 2.3169177
0.6493358 0.65122855 2.319169
0.74892837 0.64855808 2.3214557
0.84992743 0.64895201 2.3237689
0.94960946 0.64989096 2.3260503
1.0490981 0.64993262 2.3283291
1.1505879 0.65087485 2.330652
1.250145 0.65106922 2.3329327
1.3228862 0.64987409 2.3346009
-0.13926931 0.74941784 2.3009112
-0.049783375 0.75102168 2.3029578
0.050304603 0.75105602 2.3052506
0.14945321 0.74862456 2.3075261
0.24970825 0.74909949 2.3098216
0.34993568 0.74984378 2.3121166
0.450362 0.75058818 2.3144155
0.55098885 0.75133598 2.3167193
0.64965928 0.75016403 2.3189819
0.74863279 0.74862343 2.3212528
0.84985471 0.74937123 2.3235695
0.95127869 0.75011957 2.3258915
1.0507851 0.75085479 2.3281701
1.1500454 0.75099319 2.3304434
1.250748 0.74975967 2.3327525
1.322775 0.74865937 2.3344049
-0.13504522 0.84868878 2.3008125
-0.049779139 0.85053313 2.302762
0.049844854 0.85137564 2.3050427
0.14937851 0.84937274 2.307327
0.2496869 0.84890676 2.3096251
0.34990567 0.84975028 2.3119199
0.45032352 0.85059476 2.3142178
0.55094135 0.8514415 2.3165216
0.64985055 0.84926957 2.3187904
0.74856877 0.84892535 2.3210535
0.84978175 0.84977305 2.3233705
0.95119679 0.85062188 2.3256922
1.0505335 0.85127836 2.3279665
1.1508446 0.84956503 2.3302674
1.2502837 0.84892625 2.3325477
1.322661 0.84952921 2.3342035
-0.13090591 0.94607168 2.3007162
-0.049775023 0.9479546 2.3025701
0.049840719 0.94889343 2.3048513
0.15018548 0.94877797 2.3071499
0.24966568 0.94869763 2.3094285
0.3498759 0.94964004 2.3117223
0.45028517 0.95058417 2.3140202
0.55089468 0.95152962 2.3163238
0.64989483 0.94863689 2.3185968
0.74850452 0.94920963 2.3208551
0.84970891 0.95015693 2.3231716
0.95111531 0.95110637 2.3254924
1.0503695 0.9503147 2.3277683
1.1502957 0.94877601 2.33006
1.2501765 0.94970715 2.332346
1.3225473 0.95038176 2.3340023
0.64957446 1.0004582 2.3184879
0.74847126 1.0014352 2.3207514
0.84967095 1.0024346 2.3230677
0.95107293 1.0034362 2.3253887
1.0559621 1.0026908 2.3277926
1.150242 1.003306 2.329951
1.2501179 1.0042905 2.3322375
1.3224857 1.0050037 2.3338938
-1.1229471 -0.42651311 2.4146202
-1.044645 -0.4445191 2.4169929
-0.95056647 -0.44373456 2.4145977
-0.8559342 -0.44293064 2.4192004
-0.74315655 -0.44197854 2.4218042
-0.6497882 -0.4411898 2.4242537
-0.54937363 -0.44035608 2.4199398
-0.44931343 -0.43952644 2.4151154
-0.35051614 -0.438669 2.4284821
-0.2495679 -0.43781829 2.4300544
-0.14969046 -0.43699041 2.42519
-0.046341248 -0.43612507 2.4242616
0.050299011 -0.43530545 2.4283507
0.14499001 -0.43450919 2.4291999
0.24964333 -0.43362716 2.4311037
0.35252574 -0.42700219 2.4342213
-1.1257821 -0.35057923 2.4171846
0.37436602 -0.34955806 2.4299679
-1.1266614 -0.24751304 2.4175842
0.3735911 -0.25388092 2.4285502
-1.1273419 -0.15174586 2.4119854
0.37261805 -0.15016279 2.4328346
-1.1282268 -0.049992464 2.4130979
0.37182865 -0.048419017 2.4298069
-1.129115 0.050044924 2.4149969
0.37085044 0.050458111 2.4360635
-1.1300046 0.15023994 2.4168999
0.37012589 0.15037024 2.4308798
-1.1308484 0.24942102 2.4171789
0.36937028 0.24744113 2.4281001
-1.1315519 0.34968349 2.410919
0.36836231 0.35080394 2.4340003
-1.1324416 0.44994482 2.4128146
0.36762959 0.45076975 2.429158
-1.1305197 0.53199065 2.4142799
-1.0423758 0.55553854 2.4145634
-0.94962615 0.55631161 2.4122715
-0.84986627 0.55715585 2.4157317
-0.74980754 0.55800349 2.4196072
-0.65051806 0.55884397 2.4232531
-0.54905528 0.55970049 2.4257929
-0.45071775 0.56051445 2.4208317
-0.35020682 0.56136596 2.4247785
-0.2501018 0.56221348 2.4284389
-0.1550758 0.56300646 2.4265912
-0.050256915 0.56388444 2.4261537
0.050868787 0.56472033 2.4207034
0.14995897 0.5655579 2.423743
0.25004622 0.56640548 2.4276526
0.34858561 0.55373132 2.4307356
