# .PCD v0.7 - Point Cloud Data file format
VERSION 0.7
FIELDS x y z
SIZE 4 4 4
TYPE F F F
COUNT 1 1 1
WIDTH 403
HEIGHT 1
VIEWPOINT 0 0 0 1 0 0 0
POINTS 403
DATA ascii
-1.3169376 -0.5251084 2.3130753
-1.2510509 -0.52544487 2.3145576
-1.1511321 -0.52491546 2.316807
-1.0487704 -0.52438945 2.3191118
-0.94906169 -0.52470839 2.3213561
-0.84984517 -0.52330881 2.3235893
-0.75041467 -0.52365166 2.3258278
-0.6501506 -0.52222413 2.3280854
-0.55001295 -0.52272946 2.330339
-0.44968092 -0.52323627 2.3325977
-0.34915444 -0.52374369 2.3348591
-0.2495715 -0.52297801 2.3371027
-0.14962031 -0.5226438 2.3393517
-0.049475238 -0.52230853 2.3416061
0.050684128 -0.52153969 2.3438606
0.14955878 -0.52178127 2.3460865
0.24964111 -0.52042079 2.3483396
0.34940392 -0.52091819 2.350585
0.44935942 -0.5214169 2.3528354
0.54950523 -0.52191645 2.3550885
0.64852071 -0.52122629 2.3573179
0.75037438 -0.52079284 2.3596101
0.85024643 -0.52012295 2.3618591
0.94986814 -0.51965427 2.3641012
1.0507685 -0.5200696 2.3663719
1.1501219 -0.51851135 2.3686092
1.2494544 -0.51900083 2.3708451
1.3338139 -0.51941657 2.3727431
-1.3169502 -0.45009711 2.3130968
-1.2510633 -0.45038569 2.3145807
-1.1500206 -0.45082814 2.316854
-1.0487806 -0.45127141 2.3191319
-0.94957238 -0.45153868 2.321367
-0.8498531 -0.45004979 2.3236113
-0.75010157 -0.44838959 2.3258574
-0.65015656 -0.44882312 2.3281069
-0.55001783 -0.44925773 2.3303595
-0.44968495 -0.44969305 2.3326199
-0.34915754 -0.45012924 2.3348818
-0.24843489 -0.45056635 2.3371496
-0.14962168 -0.45099506 2.3393722
-0.051120915 -0.45065209 2.3415902
0.05068459 -0.44975266 2.3438814
0.15006824 -0.45018196 2.3461189
0.24981144 -0.45042956 2.3483641
0.34940714 -0.44892541 2.3506064
0.44936344 -0.44935524 2.3528566
0.54951024 -0.44978577 2.3551102
0.64984977 -0.4502171 2.357368
0.75038111 -0.45064908 2.3596313
0.84843707 -0.44998288 2.3618383
0.94987667 -0.44937742 2.3641222
1.0509849 -0.44980967 2.3663976
1.1501313 -0.45023397 2.3686299
1.2494653 -0.4506588 2.3708653
1.3338252 -0.45101973 2.3727636
-1.3169667 -0.35007989 2.3131273
-1.2510785 -0.35030431 2.3146088
-1.1500355 -0.35064861 2.316884
-1.0487945 -0.35099348 2.3191633
-0.94942504 -0.35133189 2.3213997
-0.84986567 -0.35167134 2.3236399
-0.75011104 -0.34991553 2.3258867
-0.64980906 -0.34980342 2.3281443
-0.55002522 -0.3484942 2.3303907
-0.44969115 -0.34883195 2.332649
-0.34916246 -0.34917033 2.3349121
-0.24843794 -0.3495093 2.3371787
-0.14962368 -0.34984177 2.3394027
-0.050619565 -0.35017508 2.3416319
0.050685301 -0.35051614 2.3439107
0.15007029 -0.35085067 2.3461487
0.2494836 -0.35101557 2.348386
0.34941167 -0.3494041 2.3506362
0.44936928 -0.34973836 2.3528857
0.54951704 -0.35007372 2.3551395
0.6498571 -0.35040912 2.3573987
0.75039083 -0.35074535 2.3596609
0.84949517 -0.3499442 2.3618927
0.94988823 -0.34928328 2.3641522
1.050998 -0.34961942 2.3664279
1.1501459 -0.34994903 2.36866
1.2494804 -0.35027957 2.3708937
1.3338424 -0.35056007 2.3727944
-1.3169836 -0.2500602 2.3131568
-1.2510949 -0.25022057 2.3146391
-1.1500504 -0.25046644 2.3169134
-1.0488075 -0.25071275 2.3191919
-0.94943714 -0.2509546 2.3214288
-0.84987426 -0.25119674 2.3236709
-0.75012034 -0.25143948 2.3259156
-0.65051991 -0.25125933 2.3281572
-0.5500316 -0.24982704 2.3304203
-0.44969609 -0.25006923 2.3326781
-0.34916642 -0.25031185 2.3349421
-0.24794137 -0.24921897 2.3372197
-0.14962569 -0.24868597 2.3394327
-0.050620146 -0.24892269 2.3416622
0.05068592 -0.24916503 2.3439417
0.15007204 -0.2494029 2.3461788
0.24964942 -0.24964125 2.3484194
0.34941623 -0.24987994 2.3506656
0.44937447 -0.25011897 2.3529148
0.54952383 -0.25035876 2.3551693
0.64986658 -0.2505987 2.3574278
0.75040001 -0.25083923 2.3596919
0.84845805 -0.24998622 2.3618987
0.94990164 -0.24918689 2.3641818
1.0510123 -0.2494268 2.3664577
1.1501604 -0.24966206 2.3686886
1.2494968 -0.24989763 2.3709261
1.3338591 -0.25009784 2.3728242
-1.3170003 -0.15003802 2.313185
-1.2511107 -0.15013412 2.3146682
-1.1500646 -0.15028177 2.3169425
-1.0488203 -0.15042943 2.3192213
-0.949449 -0.15057468 2.3214581
-0.8498854 -0.15072002 2.3237007
-0.75013 -0.15086566 2.3259449
-0.65018135 -0.15101147 2.3281953
-0.5500381 -0.15115772 2.3304484
-0.44970173 -0.15130426 2.3327076
-0.34917024 -0.15145098 2.3349695
-0.24894987 -0.15030226 2.3372262
-0.14962751 -0.14963487 2.3394616
-0.050620805 -0.14977735 2.3416896
0.050686557 -0.14992326 2.343971
0.15007386 -0.1500663 2.3462086
0.2496527 -0.15020968 2.348449
0.3494204 -0.15035322 2.3506951
0.44938105 -0.15049726 2.3529453
0.54953086 -0.15064147 2.3551991
0.64987546 -0.15078586 2.3574586
0.75040978 -0.1509307 2.3597214
0.84950829 -0.14984816 2.3619514
0.94991249 -0.14908803 2.3642118
1.0510246 -0.14923163 2.3664873
1.1501752 -0.14937228 2.3687198
1.2495126 -0.14951321 2.3709567
1.3338766 -0.14963295 2.3728547
-1.317017 -0.050013233 2.3132136
-1.2511282 -0.050045289 2.314698
-1.1500794 -0.0500945 2.316972
-1.048834 -0.050143737 2.3192503
-0.96035516 -0.062238816 2.3298793
-0.84989423 -0.073267363 2.3237226
-0.75013691 -0.073338181 2.3259676
-0.65018749 -0.073409133 2.3282182
-0.55004406 -0.073480204 2.3304718
-0.44970635 -0.073551431 2.3327305
-0.34901866 -0.073532619 2.3351998
-0.24852613 -0.071816236 2.3406241
-0.1497581 -0.071693256 2.3414109
-0.050632197 -0.071731053 2.3420269
0.050687045 -0.071794949 2.3439937
0.15007536 -0.07186348 2.3462312
0.24965517 -0.071932115 2.3484724
0.34942415 -0.072000884 2.3507187
0.44938523 -0.072069801 2.3529687
0.54784793 -0.049890112 2.3560133
0.64988232 -0.050970454 2.3574882
0.75041926 -0.051019363 2.359751
0.84848684 -0.049886495 2.361958
0.9499256 -0.048986606 2.3642414
1.0510389 -0.049033795 2.3665178
1.1501901 -0.049080011 2.3687501
1.2495284 -0.049126349 2.3709853
1.333894 -0.049165711 2.372885
-1.3170336 0.05001409 2.3132434
-1.2511437 0.050046142 2.3147271
-1.1500938 0.05009532 2.3170013
-1.0482621 0.050553966 2.3202221
-0.9990297 0.048640605 2.3579311
0.54580635 0.050792489 2.3568852
0.64989066 0.050971352 2.3575191
0.75042868 0.051020272 2.3597815
0.84851253 0.049794205 2.3619888
0.94993669 0.048987441 2.3642716
1.0510517 0.049034595 2.3665478
1.1502041 0.049080849 2.3687799
1.249544 0.049127169 2.3710144
1.3339096 0.049166512 2.372915
-1.3170502 0.15004395 2.3132749
-1.2511582 0.15014011 2.3147564
-1.1501088 0.15028773 2.3170307
-1.0453383 0.15100671 2.3245754
-0.99927986 0.14729132 2.3508372
0.5454765 0.15057176 2.3568962
0.6499005 0.15079175 2.3575475
0.75043815 0.15093662 2.359812
0.84952366 0.14976233 2.3620417
0.94994807 0.14909384 2.364301
1.0510643 0.14923741 2.3665779
1.1502187 0.14937808 2.368808
1.2495598 0.14951916 2.3710461
1.3339273 0.14963898 2.3729436
-1.317067 0.25007623 2.3133023
-1.2511747 0.25023648 2.3147864
-1.1501232 0.25048235 2.3170602
-1.0424583 0.25116822 2.3278849
-0.99950111 0.24642278 2.3423553
0.49980593 0.27610958 2.3850126
0.54677999 0.24986155 2.3561118
0.64990842 0.25061497 2.357578
0.75044799 0.25085545 2.3598406
0.84853417 0.24981633 2.3620484
0.94996178 0.24920295 2.364331
1.0510787 0.24944286 2.3666062
1.1502336 0.24967803 2.368839
1.2495759 0.24991375 2.3710754
1.3339434 0.25011387 2.3729751
-1.3170837 0.35011134 2.3133323
-1.2511905 0.35033569 2.3148155
-1.1501372 0.35068029 2.3170903
-1.041198 0.35132784 2.327414
-0.99971861 0.34375182 2.3340244
0.49948576 0.35485926 2.3847392
0.54829031 0.34952757 2.3555281
0.64991492 0.35044056 2.3576083
0.75045735 0.3507767 2.3598709
0.849545 0.34979138 2.3621008
0.94997227 0.34931427 2.3643615
1.0510914 0.34965071 2.3666377
1.1502478 0.34998035 2.3688703
1.2495918 0.35031095 2.3711054
1.3339614 0.35059139 2.3730052
-1.3171004 0.45014867 2.3133624
-1.2512059 0.45043728 2.3148441
-1.1501529 0.45087993 2.3171196
-1.0387998 0.45151111 2.3281167
-0.99988919 0.42343411 2.3268847
0.49923471 0.45065099 2.378247
0.54957259 0.44983712 2.3553779
0.64992321 0.45026854 2.3576381
0.75046653 0.45070076 2.3599005
0.84857845 0.4497551 2.3621097
0.9499858 0.44942847 2.3643913
1.0511053 0.44986105 2.366668
1.1502624 0.45028552 2.3688996
1.2496072 0.45071051 2.3711352
1.333977 0.45107144 2.3730357
-1.3171175 0.55018872 2.3133912
-1.2512223 0.55054134 2.3148735
-1.150167 0.55108237 2.3171489
-1.0383779 0.55124879 2.3282504
0.4988561 0.55023682 2.3767309
0.54957962 0.54957205 2.3554087
0.64993244 0.55009902 2.3576674
0.75047666 0.55062717 2.3599312
0.84954208 0.54973918 2.3621602
0.94999641 0.54954493 2.3644209
1.0511175 0.55007386 2.3666971
1.1502771 0.55059296 2.3689289
1.2495338 0.5490728 2.3711638
1.3339947 0.54941595 2.3730648
-1.3171337 0.65023118 2.3134205
-1.2512378 0.6506483 2.314904
-1.1501814 0.6512875 2.3171782
-1.0386205 0.6506536 2.3287272
0.49848992 0.64967358 2.3746979
0.54958653 0.64930928 2.3554382
0.6499418 0.64993262 2.3576968
0.75048578 0.65055615 2.3599603
0.8486315 0.64970386 2.36217
0.95000899 0.64966428 2.3644512
1.0511309 0.65028948 2.3667276
1.1502922 0.65090293 2.3689599
1.2497256 0.64947081 2.3711991
1.334011 0.64990133 2.3730948
-1.317151 0.75027627 2.3134515
-1.2512543 0.75075752 2.3149328
-1.1501963 0.75149459 2.3172088
-1.0381842 0.74951375 2.328886
0.49811044 0.75036651 2.3731797
0.54907322 0.75017571 2.3554559
0.64994788 0.74976778 2.3577278
0.75049531 0.7504878 2.3599904
0.8495307 0.74969715 2.3622196
0.95002133 0.74978548 2.3644814
1.0511447 0.75050747 2.3667572
1.1501353 0.74927276 2.3689861
1.2496545 0.74978817 2.3712258
1.3340287 0.7503885 2.3731246
-1.3171676 0.85032386 2.3134799
-1.2512693 0.85086912 2.3149614
-1.1505576 0.85129893 2.3172288
-1.0385362 0.84882188 2.3291109
0.49782357 0.8503598 2.3718066
0.5501222 0.84988064 2.355509
0.64995611 0.84960628 2.3577576
0.75050473 0.85042191 2.3600197
0.84865266 0.8497566 2.3622289
0.95003235 0.8499102 2.3645113
1.0511577 0.85072833 2.3667881
1.1504855 0.84957612 2.3690233
1.24967 0.85019821 2.3712552
1.3336984 0.84956145 2.3731484
-1.3171839 0.95037419 2.3135095
-1.251286 0.95098358 2.3149915
-1.1504128 0.95058733 2.3172622
-1.0427355 0.94567835 2.3254666
-0.9496727 0.96631634 2.3374195
-0.84980792 0.96721423 2.3387785
-0.75042576 0.96768427 2.3408325
-0.65019292 0.96689522 2.343327
-0.55070794 0.9682163 2.3427231
-0.44997895 0.96919644 2.3437593
-0.3496469 0.96995938 2.345541
-0.24957849 0.9692269 2.3479385
-0.14963311 0.96937525 2.3501911
-0.050316162 0.97038919 2.3515258
0.050370362 0.97117424 2.3534191
0.14925842 0.97095615 2.3559248
0.2498036 0.97083139 2.3577271
0.34963223 0.97135681 2.359967
0.45372921 0.96815062 2.3615699
0.54960746 0.95065939 2.3555279
0.64987725 0.94953805 2.3577843
0.75051433 0.95035857 2.3600502
0.84955251 0.94975573 2.3622797
0.95004559 0.95003659 2.3645415
1.0506463 0.94994938 2.3668065
1.1503353 0.94971395 2.3690491
1.2496867 0.95061088 2.3712862
1.3344053 0.95001739 2.3731923
-1.1213285 1.0002183 2.3179314
-1.048974 1.0009211 2.3195605
-0.949588 1.0018867 2.3217981
-0.8500101 1.0028539 2.3240395
-0.7453838 1.0034044 2.3263948
-0.65027612 1.0026962 2.3285351
-0.55011916 1.0036672 2.3307898
-0.44976792 1.00464 2.3330491
-0.34922197 1.0056145 2.3353128
-0.24550262 1.0048281 2.3376472
-0.14964932 1.0054412 2.3398051
-0.05062823 1.0063989 2.3420339
0.050693963 1.0073792 2.3443153
0.15351593 1.0073977 2.3466289
0.24968927 1.007188 2.3487942
0.34947181 1.0081513 2.3510401
0.44944656 1.0091163 2.353291
0.54961169 1.0100832 2.3555453
0.65038294 1.009003 2.3578138
0.75052005 1.009896 2.3600678
0.84911823 1.0108461 2.362288
0.9500525 1.0118183 2.3645594
1.053436 1.0116969 2.3668866
1.1503446 1.0116132 2.3690679
1.2496963 1.0125685 2.3713048
1.3340729 1.0133795 2.3732045
-1.000615 -0.023791282 2.4416597
-0.99985832 -0.025681235 2.4084442
-0.62807369 -0.046769772 2.4722211
-0.55078453 -0.046445973 2.4551051
-0.45161048 -0.046030473 2.4331424
-0.35194293 -0.045612887 2.4110689
0.36586568 -0.042651083 2.4918268
0.47635838 -0.030697165 2.4665732
0.50036645 -0.021756595 2.4149551
-1.0008234 0.051463202 2.4370518
-0.99997848 0.0065075071 2.4078591
0.49919805 0.052166451 2.4532468
0.5002715 0.043723352 2.4071131
-1.0012348 0.15041201 2.4371085
0.49888283 0.15486182 2.4483416
0.50006104 0.11689664 2.4029922
-1.0016751 0.24969168 2.4383788
0.4984588 0.24902593 2.4498401
-1.0019938 0.34986416 2.4340925
0.49789372 0.35006762 2.4563429
-1.0024209 0.44967148 2.434665
0.49752581 0.44974867 2.4543328
-1.0028244 0.54824585 2.4344311
0.49713957 0.55016881 2.453007
-1.0031818 0.65017003 2.4315007
0.49677712 0.65043926 2.450639
-1.0036142 0.75016063 2.4322727
0.49640307 0.749672 2.4489884
-1.004063 0.85059828 2.4336741
0.49602237 0.84963953 2.4474955
-1.0042201 0.92858905 2.4351211
-0.95044363 0.95190161 2.4342635
-0.85064578 0.95231587 2.4359002
-0.74947846 0.95273578 2.4376256
-0.65031183 0.95314658 2.4436426
-0.54881996 0.95356911 2.4403243
-0.45005977 0.95397973 2.4396605
-0.34992623 0.95439547 2.4412498
-0.24997473 0.95481086 2.4420598
-0.15021059 0.95522529 2.443341
-0.05009906 0.95564109 2.4441535
0.050128147 0.95605737 2.4452188
0.1501396 0.95647264 2.4465649
0.25089917 0.9568913 2.4485631
0.34904748 0.95729917 2.4495485
0.46156436 0.94998133 2.446887
0.33111307 -0.042796928 2.5003474
0.49837291 -0.020296745 2.5032461
0.4981128 0.049579777 2.5019391
0.49782768 0.12614457 2.5005074
0.36040992 0.95733249 2.5004332
0.44843125 0.95769799 2.5013874
