# .PCD v0.7 - Point Cloud Data file format
VERSION 0.7
FIELDS x y z
SIZE 4 4 4
TYPE F F F
COUNT 1 1 1
WIDTH 527
HEIGHT 1
VIEWPOINT 0 0 0 1 0 0 0
POINTS 527
DATA ascii
-1.3085232 -0.93407232 2.2838404
-1.250116 -0.93306613 2.2851503
-1.1498302 -0.93141025 2.2874095
-1.0501268 -0.93217003 2.2896554
-0.94975418 -0.9311806 2.2919149
-0.84942085 -0.93209946 2.2941768
-0.74888939 -0.93146652 2.2964399
-0.65021557 -0.92977887 2.2986581
-0.59552544 -0.92713833 2.2998838
-1.3084075 -0.84964317 2.2836394
-1.2495443 -0.85005772 2.284966
-1.1497302 -0.84891188 2.2872114
-1.0498002 -0.84974778 2.289464
-0.94967324 -0.85058576 2.2917204
-0.84906381 -0.85108483 2.2939889
-0.74929428 -0.84943515 2.2962315
-0.65016055 -0.84894687 2.2984636
-0.59110624 -0.8446632 2.2997837
-1.3082693 -0.74875879 2.2833977
-1.2493339 -0.74919415 2.2847261
-1.1496115 -0.74993157 2.2869728
-1.0496914 -0.75067049 2.2892258
-0.94929391 -0.75105566 2.2914891
-0.84953576 -0.74976313 2.2937336
-0.74874622 -0.74875504 2.2959998
-0.65009272 -0.74948001 2.2982237
-0.58584929 -0.7470054 2.2996659
-1.3081341 -0.64995426 2.2831607
-1.2492043 -0.65033257 2.2844894
-1.1494919 -0.65097225 2.2867377
-1.0490689 -0.6504401 2.288996
-0.94974995 -0.64985549 2.2912333
-0.85077769 -0.64909226 2.2934599
-0.75030631 -0.64906418 2.295723
-0.65002501 -0.65003371 2.2979844
-0.58041215 -0.64819169 2.2995493
-1.3079982 -0.55116993 2.2829239
-1.2485554 -0.55040163 2.28426
-1.1493702 -0.5499723 2.286495
-1.0499841 -0.54937613 2.2887313
-0.94937491 -0.54899132 2.2909975
-0.85112995 -0.54952174 2.2932119
-0.75064248 -0.55006462 2.2954757
-0.64995742 -0.5506084 2.2977455
-0.57523167 -0.54919279 2.2994266
-1.3078603 -0.45034897 2.2826829
-1.2494595 -0.44955909 2.283998
-1.1492487 -0.44899341 2.286252
-1.0607524 -0.466304 2.288928
-0.94930643 -0.48084831 2.2908337
-0.85106885 -0.48131299 2.2930489
-0.74950594 -0.48119026 2.29544
-0.6499306 -0.48020822 2.2976472
-0.57126498 -0.48033082 2.2993469
-1.3077217 -0.34954926 2.2824416
-1.2494708 -0.35019508 2.2837563
-1.1498262 -0.34964266 2.2859986
-1.0894748 -0.35240999 2.2893808
-1.3075864 -0.25082725 2.2822056
-1.2507141 -0.25096801 2.2834873
-1.1510463 -0.25121486 2.2857344
-1.0903161 -0.2510424 2.2880561
-1.3074486 -0.15006973 2.2819648
-1.2505821 -0.15015401 2.2832444
-1.1509237 -0.15030174 2.2854896
-1.0904504 -0.15006946 2.2880578
-1.3073105 -0.049333323 2.2817235
-1.2504497 -0.049361005 2.2830036
-1.1508021 -0.04940955 2.2852495
-1.0904354 -0.049471557 2.2881687
-1.3071752 0.049326524 2.2814875
-1.2503209 0.049354229 2.2827685
-1.1506829 0.049402744 2.285012
-1.0904998 0.049475845 2.288306
-1.307037 0.15002064 2.2812464
-1.2501881 0.15010482 2.2825286
-1.1505613 0.15025234 2.2847712
-1.0907062 0.15010622 2.2886031
-1.3068987 0.25069359 2.2810047
-1.2500553 0.25083441 2.282285
-1.1504394 0.25108084 2.284528
-1.090855 0.25075269 2.2890582
-1.3067639 0.34929144 2.2807696
-1.2499264 0.34948739 2.2820485
-1.1503206 0.34983093 2.2842934
-1.0912597 0.34754372 2.288671
-1.3066257 0.44992206 2.2805285
-1.2497952 0.45017466 2.2818081
-1.1507099 0.44973031 2.2840419
-1.0919412 0.44914064 2.2870028
-1.3064879 0.55053174 2.2802877
-1.2496629 0.55084062 2.2815683
-1.1495658 0.55045891 2.2838221
-1.0533249 0.56261009 2.2866848
-0.95156693 0.56760776 2.2885585
-0.85013252 0.56744814 2.2905266
-0.74976236 0.5680083 2.2927859
-0.64919478 0.56856912 2.2950523
-0.55048627 0.56911957 2.2972715
-0.46503291 0.57003886 2.2991941
-1.3063527 0.6490677 2.2800524
-1.2495338 0.64943171 2.2813296
-1.1499583 0.65006965 2.2835732
-1.0501885 0.65070891 2.2858179
-0.94983768 0.65084201 2.2880776
-0.85005975 0.64992934 2.290328
-0.75018322 0.649266 2.2925789
-0.64914006 0.6491468 2.2948556
-0.55043972 0.64977539 2.2970786
-0.46074992 0.65154117 2.299094
-1.306215 0.74963492 2.2798109
-1.2494017 0.75005603 2.2810903
-1.150319 0.74949199 2.2833233
-1.0500796 0.74947369 2.2855794
-0.95012236 0.75020963 2.2878323
-0.84996915 0.75094998 2.2900844
-0.74913979 0.75035453 2.2923579
-0.64955884 0.74952364 2.2946029
-0.55038232 0.74902618 2.2968378
-0.45548126 0.75068933 2.2989719
-1.3070344 0.8466382 2.2795575
-1.2503878 0.851147 2.2808228
-1.1492414 0.85016346 2.2831049
-1.0501187 0.85010755 2.285336
-0.95002389 0.84905189 2.2875941
-0.84988141 0.84988832 2.2898476
-0.74953991 0.85072637 2.2921047
-0.64851165 0.85068935 2.2943807
-0.55081236 0.84947848 2.2965851
-0.45153606 0.84916055 2.2988219
-0.39896235 0.87481648 2.2999439
-1.3079777 0.94248247 2.2793047
-1.2511759 0.94301099 2.2805841
-1.1496038 0.94395638 2.2828662
-1.049687 0.94470686 2.285116
-0.94992942 0.94375545 2.2873662
-0.84979641 0.94468522 2.2896204
-0.74946553 0.94561678 2.2918773
-0.64893699 0.94655019 2.2941396
-0.54973274 0.94658715 2.2963738
-0.4514074 0.94631582 2.2985899
-0.39498416 0.95296282 2.2998435
-0.54629266 -0.93108612 2.3010023
-0.451015 -0.93021446 2.3031461
-0.3489098 -0.93044764 2.3054478
-0.24870691 -0.92994064 2.3077028
-0.14981858 -0.92809349 2.3099263
-0.049982816 -0.92899787 2.3121767
0.049364936 -0.92940462 2.3144159
0.15027335 -0.92872298 2.3166869
0.25097024 -0.92770487 2.3189528
0.35038307 -0.92734283 2.3211911
0.45002338 -0.92724192 2.323436
0.54892582 -0.9281323 2.3256655
0.64980763 -0.92721611 2.3279359
0.74941099 -0.92573351 2.3301764
0.84888899 -0.92662472 2.3324192
0.95067841 -0.92543101 2.3347094
1.0505426 -0.92632347 2.3369608
1.1506 -0.92616314 2.3392141
1.2508456 -0.92389101 2.3414664
1.3256212 -0.92455661 2.3431528
-0.54201621 -0.8509621 2.3009045
-0.45019308 -0.8506124 2.3029721
-0.34888101 -0.85145605 2.3052557
-0.24961141 -0.84916878 2.3074861
-0.14980623 -0.84894836 2.3097348
-0.049978614 -0.84977555 2.3119841
0.050043643 -0.85060459 2.3142395
0.15026118 -0.85143477 2.3164997
0.25104395 -0.84929234 2.3187652
0.35128292 -0.84891522 2.3210211
0.44998693 -0.84972894 2.3232458
0.54888105 -0.85054445 2.3254766
0.64984286 -0.85112435 2.3277521
0.74951828 -0.84990817 2.3299947
0.84881985 -0.8488121 2.3322289
0.95060241 -0.84964722 2.3345237
1.0504596 -0.85046661 2.3367748
1.1501054 -0.85077351 2.3390198
1.2507495 -0.84999889 2.3412852
1.3257252 -0.85006744 2.3429739
-0.53663886 -0.75155807 2.3007851
-0.45014593 -0.75094932 2.3027322
-0.34861904 -0.75142682 2.3050196
-0.24969946 -0.74862224 2.3072412
-0.14979048 -0.74899375 2.3094928
-0.049973376 -0.74972308 2.3117433
0.050038364 -0.75045419 2.3139975
0.15024538 -0.75118756 2.3162565
0.25011343 -0.7508952 2.3185043
0.35124597 -0.74847186 2.3207774
0.44993931 -0.74918938 2.3230026
0.5488236 -0.74990767 2.3252313
0.65000671 -0.75064397 2.3275123
0.74947941 -0.75088942 2.3297539
0.84908718 -0.75028062 2.3319957
0.9507997 -0.74896038 2.3342834
1.0503476 -0.74934113 2.3365276
1.1503875 -0.75006539 2.3387821
1.2506199 -0.75079054 2.3410418
1.3251774 -0.75081748 2.3427212
-0.53119701 -0.65235573 2.3006678
-0.45009887 -0.65130866 2.3024909
-0.34852508 -0.65055907 2.3047779
-0.24938737 -0.64842892 2.3070056
-0.14977488 -0.64906013 2.3092515
-0.049968183 -0.64969254 2.3115003
0.050033092 -0.65032613 2.3137541
0.15022959 -0.65096068 2.3160129
0.25062189 -0.65159708 2.3182755
0.35171404 -0.64933962 2.3205476
0.44989195 -0.64867127 2.3227584
0.5487656 -0.64929402 2.3249855
0.64993805 -0.64993089 2.3272667
0.75130939 -0.65056896 2.3295517
0.85076106 -0.65119463 2.3317933
0.95009881 -0.65007907 2.3340275
1.0504785 -0.65006077 2.3362892
1.1502659 -0.64886391 2.3385344
1.2504873 -0.64949054 2.3407931
1.32524 -0.64995819 2.3424783
-0.52600956 -0.55317461 2.3005435
-0.4498257 -0.55143112 2.3022556
-0.34927425 -0.54905069 2.3045146
-0.24936141 -0.54861337 2.3067648
-0.14975907 -0.54914743 2.3090088
-0.049962915 -0.54968214 2.3112586
0.050027832 -0.55021816 2.3135118
0.15021399 -0.55075532 2.3157697
0.25059557 -0.55129343 2.318032
0.35067388 -0.5510658 2.3202856
0.45034873 -0.54906523 2.3225257
0.54870731 -0.54870033 2.3247411
0.64986956 -0.54923838 2.3270211
0.75123018 -0.54977757 2.3293059
0.85067105 -0.55030662 2.3315468
0.95030564 -0.55083662 2.3337922
1.049897 -0.55110168 2.3360364
1.1501459 -0.54979211 2.3382912
1.2503567 -0.55032283 2.3405497
1.3253415 -0.54929298 2.342236
-1.0673385 -0.4445174 2.3505356
-0.94975007 -0.46323448 2.3483863
-0.8501035 -0.46265274 2.344892
-0.75163019 -0.46206942 2.344769
-0.64932126 -0.46145061 2.3498137
-0.53523737 -0.47110185 2.3241339
-0.45041156 -0.47419259 2.3190978
-0.34916776 -0.47259545 2.3208113
-0.24960899 -0.4725827 2.3215849
-0.14972068 -0.47278348 2.3221571
-0.049924474 -0.47295421 2.322866
0.050096478 -0.47307757 2.3237488
0.15033081 -0.47325641 2.3246288
0.25087911 -0.47259802 2.3295791
0.35073811 -0.47251317 2.3314979
0.44880989 -0.45084482 2.3264985
0.54915708 -0.44941834 2.3245106
0.6498009 -0.44856739 2.3267756
0.75115079 -0.44900784 2.3290596
0.85058099 -0.44943979 2.3312998
0.95020431 -0.44987255 2.333545
1.0500183 -0.4503063 2.3357944
1.1500273 -0.45074081 2.3380489
1.2502265 -0.45117596 2.340306
1.3247176 -0.45011243 2.3419819
-1.084664 -0.34882909 2.350148
0.45082825 -0.35128477 2.3277025
0.54809278 -0.35099944 2.3242481
0.64973372 -0.35001418 2.326535
0.75160873 -0.34937546 2.3288279
0.85049117 -0.34859428 2.3310537
0.95010418 -0.34892991 2.3332982
1.0499074 -0.34926644 2.3355472
1.1499048 -0.34960312 2.3378017
1.2500943 -0.34994066 2.3400586
1.3248239 -0.35019255 2.3417423
-1.0852127 -0.2498088 2.3482437
0.45077276 -0.25083643 2.3269787
0.54853714 -0.25123531 2.3240156
0.64966655 -0.25148153 2.3262949
0.75045931 -0.25078726 2.3285637
0.85040331 -0.24987014 2.3308125
0.95000511 -0.25011081 2.3330574
1.0497984 -0.25035179 2.3353052
1.1502285 -0.24908377 2.337564
1.2499611 -0.24872686 2.3398099
1.3246826 -0.24890584 2.3414931
-1.0858417 -0.14989227 2.3496387
0.45066166 -0.15053724 2.3264606
0.54847902 -0.15072572 2.323772
0.64959806 -0.15087339 2.3260496
0.750916 -0.15102142 2.3283324
0.85031492 -0.15116666 2.3305712
0.94990677 -0.15131225 2.3328152
1.0496895 -0.1514581 2.3350632
1.1492107 -0.15013015 2.3373017
1.2498314 -0.14964235 2.3395665
1.324546 -0.14975014 2.3412507
-1.0863947 -0.051187221 2.3479884
0.44942322 -0.049758375 2.3279028
0.5484212 -0.050237134 2.3235261
0.64952934 -0.050286412 2.325804
0.75083649 -0.050335772 2.3280861
0.85022533 -0.050384168 2.3303246
0.94980717 -0.050432671 2.3325682
1.0495784 -0.050481267 2.3348155
1.1495441 -0.050529931 2.3370678
1.249701 -0.050578732 2.339323
1.3244075 -0.05061511 2.3410068
-1.0869842 0.049920883 2.3473196
0.45057353 0.050443444 2.3278868
0.55010349 0.049929976 2.3233213
0.64946097 0.05027933 2.3255579
0.75075758 0.050328683 2.3278401
0.85013545 0.050377052 2.3300788
0.94970596 0.050425544 2.3323214
1.0494674 0.050474145 2.3345683
1.1494223 0.050522819 2.3368199
1.2495686 0.050571594 2.3390758
1.3242656 0.050607968 2.3407583
-1.0876206 0.15002792 2.3489871
0.4507798 0.15044332 2.3272026
0.55040842 0.15067926 2.3230841
0.64939237 0.15082385 2.3253136
0.75067848 0.15097183 2.3275943
0.85004556 0.15111698 2.3298328
0.94960582 0.15126234 2.3320749
1.0493567 0.15140809 2.3343215
1.1488562 0.15095781 2.3365638
1.2494391 0.14959389 2.3388321
1.3241295 0.14970145 2.3405142
-1.0882492 0.25025925 2.3502867
0.45059082 0.25074986 2.3265903
0.55035055 0.25110632 2.3228402
0.64932388 0.25134721 2.325068
0.75059837 0.25159371 2.3273485
0.84965575 0.25011456 2.3295834
0.94950765 0.24997799 2.3318326
1.0492473 0.25021869 2.3340797
1.1496353 0.2498285 2.3363419
1.24931 0.24859536 2.3385901
1.3239921 0.24877411 2.340271
-1.0888394 0.35140571 2.3496473
0.4504666 0.35108164 2.325865
0.55029297 0.35151181 2.3225942
0.64871824 0.35082293 2.3248131
0.75052154 0.35009882 2.3271086
0.85016292 0.34869075 2.3293567
0.94940895 0.34867281 2.3315923
1.0491388 0.34900877 2.3338373
1.1490619 0.3493453 2.3360872
1.2491767 0.34968245 2.3383412
1.3238508 0.34993359 2.3400226
-1.0893975 0.45037684 2.3481059
0.45034343 0.45135993 2.3251863
0.54972214 0.4509162 2.322341
0.64972734 0.44917035 2.3245981
0.75044358 0.4485836 2.3268681
0.84978008 0.44901454 2.3291044
0.94930881 0.44944656 2.3313456
1.0498452 0.450389 2.3336072
1.1497178 0.44981608 2.3358593
1.2490442 0.45074767 2.3380938
1.3237104 0.4510718 2.3397751
-1.066009 0.52788723 2.351351
-0.94816929 0.53679895 2.3496013
-0.85013354 0.537377 2.3487155
-0.75040191 0.53797114 2.3501945
-0.64963549 0.53855181 2.3442068
-0.54971462 0.53915131 2.347285
-0.43237382 0.55345118 2.3257453
-0.34909749 0.56306463 2.3141668
-0.24968871 0.56299639 2.316824
-0.14967149 0.56211579 2.3195372
-0.049974151 0.56263524 2.3218746
0.049490727 0.56408834 2.3209503
0.15006471 0.56485444 2.3225505
0.2502763 0.56552064 2.324681
0.35057184 0.566037 2.3270714
0.44983634 0.55082524 2.3227012
0.55069262 0.54915029 2.322125
0.64912152 0.54860497 2.3243434
0.75036448 0.5491426 2.3266222
0.84968984 0.5496704 2.3288577
0.9492088 0.55019903 2.3310993
1.0510408 0.55074036 2.3333912
1.1509453 0.5512712 2.3356404
1.2486736 0.54997027 2.3378453
1.3235736 0.55008209 2.3395314
-0.41167217 0.64548266 2.3002141
-0.35039726 0.65104938 2.3015802
-0.24870904 0.6512506 2.30387
-0.15004964 0.64897108 2.3060989
-0.049900174 0.64880633 2.3083549
0.049964983 0.6494382 2.3106027
0.1500248 0.6500712 2.3128543
0.25027987 0.65070558 2.3151121
0.35073072 0.65134138 2.3173733
0.45107904 0.65068305 2.3196344
0.55012119 0.64842224 2.321871
0.64905339 0.64904422 2.3240981
0.75028515 0.64968038 2.3263764
0.84960079 0.65030497 2.3286126
0.94910741 0.6509304 2.3308518
1.0504516 0.65088677 2.3331354
1.1508263 0.65009618 2.3353984
1.2507219 0.64922494 2.3376503
1.3250945 0.64833826 2.3393281
-0.40669939 0.73920059 2.3000984
-0.35036042 0.75049454 2.3013399
-0.24902156 0.75123858 2.3036201
-0.14930128 0.75040257 2.3058693
-0.049895003 0.74854445 2.3081131
0.049959734 0.74927324 2.3103602
0.15000916 0.75000352 2.3126123
0.2502538 0.75073618 2.3148685
0.35069385 0.75146902 2.3171289
0.45151287 0.74949944 2.3194051
0.55006355 0.7487427 2.3216262
0.64898503 0.74946225 2.3238535
0.75020611 0.75019747 2.3261318
0.84951085 0.75091809 2.328366
0.94850385 0.7508713 2.3305964
1.0513071 0.74956274 2.3329151
1.150707 0.74890077 2.3351557
1.2507849 0.74962288 2.3374085
1.3254291 0.75016224 2.3390887
-0.40403813 0.80186027 2.3000066
-0.34881985 0.84914929 2.3011358
-0.2489956 0.85076147 2.30338
-0.14931352 0.85132092 2.3056242
-0.050313801 0.84888148 2.3078609
0.049954489 0.84908777 2.3101184
0.14999326 0.84991562 2.3123693
0.25022733 0.85074431 2.3146257
0.35065717 0.85157514 2.3168855
0.45154908 0.84874558 2.3191645
0.55000561 0.84904516 2.3213823
0.64891672 0.84985983 2.3236079
0.75012732 0.85069257 2.3258867
0.84919024 0.85124445 2.3281167
0.94942033 0.84942806 2.3303788
1.0507113 0.84896773 2.3326607
1.1505857 0.84978598 2.3349085
1.250652 0.85060525 2.3371608
1.325289 0.85121691 2.33884
-0.34378859 0.94642156 2.3010128
-0.24896994 0.94819075 2.3031445
-0.14952385 0.94911206 2.305382
-0.04944995 0.94855005 2.3076391
0.049949232 0.94888103 2.3098769
0.14997759 0.9498055 2.3121274
0.25020102 0.95073235 2.3143823
0.35045964 0.95149171 2.3166394
0.45132169 0.94850063 2.3189187
0.54994756 0.94932514 2.3211384
0.64884806 0.95023549 2.323364
0.75004792 0.95116681 2.3256404
0.84921533 0.95017141 2.3278775
0.94881141 0.94880211 2.3301239
1.050601 0.94973499 2.3324137
1.1504631 0.95064998 2.3346617
1.2499939 0.9507069 2.3369029
1.3251506 0.95014596 2.3385975
0.39668316 1.0000589 2.3175626
0.451213 1.0005884 2.3187895
0.5499174 1.001547 2.3210106
0.64881235 1.0025072 2.323236
0.75000691 1.0034896 2.3255129
0.85392666 1.0026591 2.3278556
0.94875693 1.0033227 2.3299897
1.0505407 1.0043091 2.3322806
1.1503974 1.0052764 2.3345275
1.2555931 1.0052078 2.3368969
1.3250748 1.0048646 2.3384628
-1.0696559 -0.44230542 2.4210937
-0.95013088 -0.46304682 2.4245992
-0.84965795 -0.46245965 2.4212708
-0.74947107 -0.46187294 2.4184527
-0.64681941 -0.46126655 2.4176764
-0.552957 -0.46069321 2.4245124
-0.45131966 -0.46007231 2.431968
-0.35008845 -0.45948011 2.4288387
-0.25021645 -0.45889655 2.4254966
-0.14759237 -0.45827243 2.43191
-0.050382558 -0.45769846 2.4310877
0.050296199 -0.45710972 2.4279609
0.14998361 -0.45652771 2.4245272
0.25207457 -0.45589253 2.4366565
0.35043806 -0.45529804 2.4413583
0.41288468 -0.43264219 2.4348242
-1.0862472 -0.35113186 2.4209826
0.41392905 -0.34968731 2.4308925
-1.0867721 -0.25045648 2.417598
0.41339564 -0.25009242 2.4281416
-1.0874015 -0.150359 2.418999
0.41273302 -0.14626609 2.4300072
-1.0879754 -0.046793353 2.4170239
0.41194421 -0.053150311 2.4403405
-1.0885471 0.05007904 2.4167271
0.41129476 0.050579555 2.4416428
-1.0891773 0.15031448 2.4181275
0.41077384 0.15082718 2.4381659
-1.0898012 0.25011739 2.4193521
0.41024274 0.25008702 2.4354
-1.0903234 0.3473011 2.4167609
0.40972823 0.34908924 2.4319596
-1.0909429 0.44930094 2.4171875
0.40919602 0.44857576 2.4291835
-1.0624011 0.52954584 2.4196179
-0.9495225 0.53697783 2.4230917
-0.85005301 0.53757393 2.4257817
-0.74846631 0.53817964 2.4272938
-0.6499716 0.5387485 2.4213047
-0.5488205 0.53935379 2.4237463
-0.44884989 0.53995258 2.4264281
-0.35014498 0.54054475 2.4293807
-0.25047782 0.54114187 2.4320629
-0.15060022 0.54173946 2.4344578
-0.050494153 0.54233968 2.4374466
0.052638065 0.5429365 2.4320612
0.15013386 0.54351479 2.432534
0.24983683 0.54408729 2.4256573
0.35001209 0.54468703 2.4283328
0.40809399 0.5254516 2.426729
