# .PCD v0.7 - Point Cloud Data file format
VERSION 0.7
FIELDS x y z
SIZE 4 4 4
TYPE F F F
COUNT 1 1 1
WIDTH 531
HEIGHT 1
VIEWPOINT 0 0 0 1 0 0 0
POINTS 531
DATA ascii
-1.3058668 -0.92119288 2.2758489
-1.2498249 -0.91929185 2.2771435
-1.14994 -0.91995835 2.2794578
-1.0515668 -0.91952723 2.281734
-0.95061982 -0.91976333 2.2840724
-0.85070902 -0.91847068 2.2863836
-0.75048983 -0.91750407 2.288703
-0.65130526 -0.91789472 2.2910001
-0.54954737 -0.91730326 2.2933552
-0.45082855 -0.91804558 2.2956424
-0.34984818 -0.91501069 2.2979753
-0.28014043 -0.91529888 2.2995899
-1.3059739 -0.84944677 2.2757144
-1.2492267 -0.84923464 2.2770278
-1.1498752 -0.85009342 2.2793303
-1.0503221 -0.85095352 2.2816377
-0.95041692 -0.84992361 2.2839491
-0.85111016 -0.84939748 2.286247
-0.75044835 -0.84941894 2.2885783
-0.65008515 -0.85028231 2.2909033
-0.54951847 -0.85114729 2.2932334
-0.45060703 -0.85017878 2.2955215
-0.34982967 -0.84872144 2.2978539
-0.27765656 -0.84747499 2.2995224
-1.3058152 -0.75028074 2.2755358
-1.2491282 -0.75071359 2.2768493
-1.1493454 -0.7500878 2.2791588
-1.0502378 -0.75017756 2.2814536
-0.95064557 -0.74905473 2.2837579
-0.85054046 -0.74963641 2.2860765
-0.75038934 -0.75039852 2.2883968
-0.65003365 -0.7511611 2.2907236
-0.5492571 -0.75010896 2.2930539
-0.45105186 -0.74889112 2.2953265
-0.34980175 -0.74929965 2.297672
-0.27369499 -0.74835616 2.2994316
-1.3057104 -0.64978147 2.2753539
-1.2490287 -0.6501565 2.2766669
-1.1501354 -0.64946002 2.2789552
-1.050153 -0.64941597 2.2812703
-0.9504149 -0.65007365 2.2835817
-0.85047334 -0.65073317 2.285897
-0.7499966 -0.65095145 2.2882242
-0.64998108 -0.64999068 2.2905383
-0.54965323 -0.64885122 2.2928591
-0.45073202 -0.64923179 2.2951503
-0.34977436 -0.6498937 2.2974889
-0.26982573 -0.64928949 2.2993395
-1.3056061 -0.54929811 2.2751713
-1.2489287 -0.54961485 2.2764843
-1.149601 -0.5501706 2.2787852
-1.0500709 -0.55072737 2.2810912
-0.95005906 -0.55093181 2.2834072
-0.85040468 -0.54978377 2.2857122
-0.75059623 -0.54992402 2.2880232
-0.64992887 -0.54883677 2.2903528
-0.54938602 -0.54939508 2.2926817
-0.45069641 -0.54994273 2.2949674
-0.34974647 -0.55050331 2.2973068
-0.26585847 -0.55006802 2.2992487
-1.3055037 -0.45088106 2.2749927
-1.2485479 -0.45080277 2.2763109
-1.1532596 -0.45283878 2.2790041
-1.050074 -0.46865654 2.2813635
-0.95073003 -0.46865591 2.2832952
-0.8495416 -0.4663679 2.2860014
-0.75010866 -0.46588561 2.2883241
-0.64977807 -0.46636197 2.2902582
-0.54934978 -0.46674803 2.2925313
-0.45066658 -0.46721348 2.2948172
-0.34973428 -0.46563253 2.2972212
-0.26228517 -0.4655661 2.2991765
-1.3053988 -0.35042962 2.2748106
-1.2490038 -0.35031348 2.2761157
-1.1621706 -0.34906814 2.2793078
-1.3052945 -0.24999425 2.2746284
-1.2491215 -0.25051019 2.2759297
-1.1626558 -0.24989285 2.2793787
-1.30519 -0.14957508 2.274446
-1.2505552 -0.14965819 2.2757108
-1.1643136 -0.14979137 2.2793472
-1.3050853 -0.049171824 2.2742643
-1.2504551 -0.04919919 2.2755289
-1.1648052 -0.049868781 2.2791691
-1.304983 0.049166694 2.2740858
-1.2503572 0.049194045 2.2753501
-1.1658521 0.049262494 2.2784762
-1.3048784 0.14953794 2.2739034
-1.2502569 0.14962111 2.275167
-1.1659397 0.14973085 2.2785013
-1.3047743 0.24989332 2.273721
-1.2501563 0.25003222 2.274986
-1.1659502 0.25021008 2.2786844
-1.3046693 0.35023245 2.2735391
-1.250056 0.35042721 2.2748041
-1.1662419 0.35037443 2.2788317
-1.304565 0.45055553 2.2733564
-1.2499565 0.45080608 2.2746212
-1.1671736 0.45030326 2.2779639
-1.3045156 0.5501985 2.2731748
-1.2498578 0.5491209 2.2744424
-1.1580532 0.55440813 2.2776709
-1.0494387 0.57745153 2.2809019
-0.94942552 0.57957524 2.2817175
-0.84961998 0.58034033 2.2841387
-0.74959803 0.58082289 2.286639
-0.65042627 0.58105063 2.289047
-0.5504638 0.58086914 2.2911494
-0.45028916 0.58249474 2.2928956
-0.3514913 0.5830757 2.2951815
-0.25043097 0.58367002 2.2975214
-0.17111096 0.58442658 2.2993569
-1.3043011 0.65045303 2.2729952
-1.2497573 0.64946765 2.2742603
-1.1505268 0.65012378 2.276557
-1.0495775 0.64966232 2.2788956
-0.94943005 0.64939886 2.2812142
-0.84959126 0.65005654 2.2835252
-0.74955088 0.65071559 2.2858407
-0.64888191 0.65078443 2.2881715
-0.54886031 0.6499756 2.2904887
-0.45064673 0.64908791 2.2927654
-0.35147256 0.64920545 2.2950611
-0.25041765 0.64986706 2.297401
-0.16841178 0.65148652 2.2992957
-1.3042537 0.74938226 2.2728148
-1.249658 0.74979901 2.2740786
-1.1504341 0.75055498 2.2763739
-1.0484717 0.75016379 2.2787361
-0.94935417 0.7500366 2.2810309
-0.84998 0.74941248 2.2833335
-0.7494911 0.7494995 2.2856607
-0.64925539 0.75025928 2.2879789
-0.54881644 0.75102216 2.2903042
-0.44985509 0.75020915 2.2925982
-0.35194671 0.74935192 2.2948668
-0.25039795 0.74915063 2.2972181
-0.1645444 0.75054383 2.2992032
-1.3041492 0.84964126 2.2726321
-1.2495577 0.85011357 2.2738955
-1.1507965 0.84959292 2.2761836
-1.0488974 0.84979844 2.2785428
-0.94927776 0.85065818 2.2808485
-0.84900588 0.85010737 2.2831712
-0.74970627 0.84999144 2.2854702
-0.64920408 0.8491286 2.2877986
-0.54877287 0.84999108 2.2901237
-0.45019257 0.85083777 2.2924054
-0.3509163 0.85055017 2.2947032
-0.25086591 0.84917784 2.2970226
-0.16048405 0.84985793 2.2991152
-1.3045906 0.93818462 2.2724597
-1.2501918 0.94260091 2.2737114
-1.1497254 0.94176716 2.2760394
-1.0488198 0.94209826 2.2783744
-0.9492079 0.94305187 2.2806799
-0.84939188 0.94400668 2.2829895
-0.74905431 0.94460994 2.2853115
-0.65006518 0.94339657 2.2876055
-0.54968393 0.94527251 2.2899272
-0.45015857 0.94576287 2.2922308
-0.35138908 0.94670594 2.2945166
-0.24983326 0.94633061 2.296869
-0.15655477 0.94716716 2.2990265
-0.23060444 -0.91631496 2.3007388
-0.15030754 -0.91516209 2.3025961
-0.04982578 -0.91570127 2.3049235
0.049930193 -0.91445053 2.3072309
0.14981006 -0.91337496 2.3095424
0.24825823 -0.91365194 2.3118222
0.35024831 -0.91312528 2.3141832
0.45012018 -0.91389155 2.3164966
0.55243117 -0.91101593 2.3188605
0.65031433 -0.9116838 2.3211286
0.74772954 -0.91097808 2.3233829
0.85065854 -0.91141099 2.3257673
0.94896322 -0.91089052 2.328042
1.0496808 -0.90901595 2.3303709
1.1477491 -0.90952015 2.3326428
1.2494949 -0.9087171 2.3349977
1.3240904 -0.90939003 2.3367262
-0.22822742 -0.85107529 2.300674
-0.14933676 -0.8504374 2.3024991
-0.049823172 -0.85128903 2.3048058
0.049835894 -0.84980398 2.3071096
0.14980246 -0.84883374 2.3094234
0.24991594 -0.84968626 2.311743
0.3502309 -0.85054094 2.3140674
0.45074749 -0.85139674 2.3163958
0.5517658 -0.8493703 2.3187318
0.6502822 -0.84891135 2.321012
0.74929541 -0.84975076 2.323307
0.85061753 -0.85060948 2.3256531
0.94973189 -0.85109711 2.3279495
1.0499932 -0.84974563 2.3302689
1.1494329 -0.84893608 2.3325706
1.2494363 -0.84977978 2.3348866
1.3240281 -0.85040867 2.3366163
-0.22425479 -0.7517249 2.3005831
-0.14932476 -0.75081354 2.3023167
-0.049819265 -0.75156641 2.3046219
0.049511168 -0.74895298 2.306917
0.14979053 -0.74891114 2.3092394
0.24989595 -0.74966371 2.3115587
0.35020274 -0.75041771 2.3138826
0.45071137 -0.75117195 2.3162107
0.55097228 -0.7508108 2.3185322
0.65023011 -0.7484867 2.3208261
0.74923545 -0.74922746 2.3231215
0.85054904 -0.74998426 2.3254685
0.9499495 -0.7507273 2.3277712
1.0491949 -0.75104606 2.3300695
1.1493423 -0.75011468 2.3323867
1.2493354 -0.74875569 2.3347003
1.3239216 -0.74930924 2.3364275
-0.22035529 -0.65224379 2.3004899
-0.14931294 -0.65120721 2.3021333
-0.049336441 -0.65106338 2.3044477
0.049798835 -0.64844394 2.3067389
0.14977854 -0.64900482 2.3090546
0.24987595 -0.64965665 2.3113742
0.3501749 -0.6503098 2.3136978
0.4506757 -0.65096438 2.3160262
0.55129457 -0.65153557 2.3183579
0.65068543 -0.64924365 2.3206539
0.74917537 -0.64872044 2.3229339
0.85048079 -0.64937603 2.3252814
0.94987357 -0.65001911 2.327584
1.0494641 -0.65066314 2.329891
1.1492521 -0.65130895 2.3322036
1.2492368 -0.6498518 2.3345156
1.3238168 -0.65033275 2.3362434
-0.21637857 -0.55292445 2.3003995
-0.14930108 -0.55161583 2.3019514
-0.050285231 -0.54932964 2.304239
0.049877733 -0.5485642 2.3065572
0.14976662 -0.54911429 2.3088708
0.2498561 -0.54966593 2.3111899
0.35014707 -0.55021816 2.3135133
0.45063937 -0.55077189 2.3158407
0.55133468 -0.55132663 2.3181734
0.64962238 -0.55098063 2.3204501
0.74959081 -0.54891014 2.3227611
0.85041255 -0.54878366 2.3250945
0.94979703 -0.54932672 2.3273957
1.0493803 -0.54987144 2.3297038
1.1491592 -0.55041707 2.332015
1.2491386 -0.55096358 2.3343315
1.3237127 -0.5513714 2.3360586
-1.1309633 -0.42432094 2.3459377
-1.0480092 -0.43885621 2.3497415
-0.95043272 -0.43796623 2.3486605
-0.85303366 -0.43707463 2.3492205
-0.7500174 -0.43613043 2.3502719
-0.64968383 -0.43522385 2.345268
-0.54874128 -0.43429011 2.3506613
-0.4503307 -0.43339795 2.3472323
-0.35033473 -0.43247145 2.3531661
-0.22966628 -0.45126316 2.3219571
-0.14917955 -0.45954749 2.3103952
-0.049849138 -0.45667738 2.314847
0.049874745 -0.45687291 2.3157275
0.14977555 -0.45702338 2.3168631
0.24986057 -0.45723304 2.3177273
0.35222262 -0.45302865 2.3189707
0.45060354 -0.45059571 2.3156557
0.55129051 -0.45104966 2.3179882
0.65007561 -0.45149475 2.3202775
0.74857503 -0.45056316 2.3225553
0.85087943 -0.44914743 2.3249223
0.94972098 -0.44865105 2.3272095
1.049296 -0.44909579 2.3295164
1.1490669 -0.44954118 2.3318279
1.2490375 -0.44998756 2.3341434
1.3236057 -0.45032057 2.3358703
-1.1356953 -0.3499116 2.3475308
0.37729442 -0.35024843 2.326936
0.45056751 -0.3504357 2.3154709
0.55124646 -0.35078847 2.3178036
0.65002358 -0.35113466 2.3200908
0.74899763 -0.35148153 2.3223839
0.84974146 -0.35072207 2.3247139
0.94964594 -0.35008836 2.3270264
1.0496558 -0.3489314 2.3293405
1.1503237 -0.34818578 2.3316705
1.2502463 -0.34953803 2.333986
1.3234992 -0.34928626 2.3356822
-1.1366694 -0.24995525 2.3498821
0.37711126 -0.25014168 2.3250027
0.4505316 -0.25029117 2.3152854
0.55120176 -0.25054327 2.3176169
0.64997184 -0.25079075 2.3199053
0.74893779 -0.25103843 2.3221977
0.85021049 -0.25129199 2.3245425
0.94957161 -0.25154075 2.326844
1.048678 -0.25032064 2.3291366
1.1510093 -0.2499442 2.3315053
1.2509667 -0.25019237 2.3338199
1.3233943 -0.25037223 2.3354979
-1.1376319 -0.14982799 2.3517017
0.37679043 -0.15020257 2.323791
0.45049551 -0.15016319 2.3151007
0.55115795 -0.15031415 2.3174331
0.64991975 -0.15046272 2.3197196
0.74887788 -0.15061122 2.322011
0.8501426 -0.15076338 2.3243558
0.94949549 -0.15091257 2.3266566
1.0490462 -0.15106212 2.3289623
1.1509185 -0.151215 2.3313208
1.250868 -0.15136525 2.333636
1.3232899 -0.15147407 2.3353136
-1.1384748 -0.049647138 2.3483143
0.37563735 -0.049385034 2.3267405
0.45045948 -0.050050776 2.3149164
0.55111432 -0.050101187 2.3172464
0.64986771 -0.050150633 2.3195336
0.74881786 -0.050200179 2.321826
0.85007405 -0.050250873 2.3241689
0.94941932 -0.050300643 2.3264711
1.0489619 -0.05035045 2.3287749
1.1508262 -0.050401408 2.3311343
1.2507677 -0.050451491 2.3334486
1.3231838 -0.050487742 2.3351254
-1.1393433 0.049977321 2.3462968
0.37514064 0.049970336 2.3262248
0.45042351 0.050045446 2.3147311
0.55107021 0.050095864 2.3170609
0.64981568 0.050145291 2.3193479
0.7487576 0.050194815 2.3216391
0.85000598 0.050245482 2.323983
0.94934273 0.050295237 2.3262832
1.0488782 0.050345048 2.3285882
1.1507335 0.050396029 2.3309467
1.2506661 0.050446074 2.3332608
1.3230772 0.050482322 2.3349376
-1.1403161 0.15002297 2.3486061
0.37477785 0.15012898 2.3248353
0.45038763 0.1501257 2.3145461
0.55102593 0.15027682 2.3168764
0.64976346 0.15042517 2.3191619
0.74869782 0.15057366 2.3214521
0.84993774 0.15072578 2.3237967
0.94926673 0.15087493 2.3260977
1.0487937 0.15102419 2.3284013
1.1506407 0.15117733 2.3307598
1.2505654 0.15132737 2.3330729
1.32297 0.15143612 2.3347497
-1.1412758 0.25005254 2.350343
0.37463132 0.25015768 2.3230054
0.45035136 0.25019005 2.3143623
0.55098158 0.25044182 2.3166914
0.64971161 0.25068894 2.3189774
0.7486375 0.25093654 2.3212671
0.84986985 0.25118989 2.3236108
0.95088017 0.25179145 2.3259485
1.0500232 0.25089312 2.3282456
1.1505508 0.24984337 2.3305755
1.2504673 0.25009137 2.3328896
1.3228661 0.25027099 2.3345654
-1.1422355 0.34968713 2.3522122
0.37431791 0.35007688 2.3221164
0.4503158 0.35023811 2.3141773
0.55093813 0.3505908 2.3165064
0.64965975 0.35093668 2.3187912
0.74857754 0.35128319 2.3210809
0.84980178 0.35163781 2.3234243
0.95106369 0.35007983 2.3257723
1.0511026 0.34977514 2.3280888
1.1504598 0.3484931 2.3303928
1.2503691 0.34883937 2.3327048
1.3227615 0.34909031 2.3343809
-1.1430157 0.45064628 2.3458209
0.37284899 0.449848 2.3257763
0.45027959 0.45027065 2.3139923
0.55089402 0.45072386 2.3163209
0.64960778 0.45116833 2.3186069
0.74851716 0.45161396 2.3208952
0.84949511 0.45024788 2.3232377
0.95131874 0.44850659 2.3255961
1.0506628 0.44878218 2.3278971
1.1503673 0.44922698 2.3302047
1.2502682 0.44967282 2.3325174
1.3226552 0.44999579 2.3341932
-1.1383325 0.53780007 2.3474202
-1.0499004 0.56116802 2.3504906
-0.95015454 0.56207013 2.3454771
-0.85011744 0.56299239 2.3493323
-0.75128466 0.56390136 2.3520048
-0.65069073 0.56481332 2.348017
-0.54866409 0.56574619 2.3479798
-0.45033538 0.566643 2.3467915
-0.35012671 0.56756729 2.3509867
-0.25260454 0.56845838 2.3506529
-0.13829945 0.57550502 2.3293202
-0.049866538 0.57931787 2.3216174
0.048985317 0.57937932 2.3252125
0.14986905 0.57915622 2.3293107
0.2488407 0.58032882 2.3281024
0.35911685 0.55814892 2.323976
0.45024368 0.55028695 2.3138072
0.55084985 0.55084085 2.3161361
0.64964694 0.55147153 2.3184235
0.74800527 0.550816 2.3207018
0.84990042 0.5485552 2.3230646
0.95108044 0.5488559 2.3254068
1.0505782 0.54939926 2.3277097
1.1502746 0.54994404 2.3300176
1.2501682 0.55048978 2.3323298
1.3225487 0.55088538 2.3340049
-0.11890198 0.64902681 2.300447
-0.049763545 0.6511808 2.302043
0.050326243 0.65095043 2.3043618
0.14939708 0.6485998 2.3066599
0.24961728 0.64898252 2.3089802
0.34981194 0.64963448 2.3112996
0.45020765 0.65028757 2.3136225
0.55080551 0.65094179 2.3159509
0.65160614 0.65159732 2.3182836
0.75093257 0.64913583 2.3205876
0.84960037 0.64870238 2.3228745
0.95100403 0.64935774 2.3252206
1.0504943 0.65000087 2.3275237
1.1501825 0.65064526 2.3298297
1.2500666 0.65129089 2.3321421
1.3222444 0.65024668 2.3338149
-0.11499472 0.74851769 2.3003547
-0.049759548 0.75066495 2.3018615
0.049825985 0.75141484 2.3041656
0.14933848 0.74949563 2.3064735
0.24959758 0.74876666 2.3087962
0.3497839 0.74951822 2.3111143
0.4501718 0.7502718 2.3134382
0.55076164 0.75102758 2.3157668
0.65115619 0.75127518 2.3180892
0.75053012 0.7484355 2.3203967
0.84953243 0.74908745 2.3226874
0.95092803 0.7498427 2.3250346
1.0504097 0.75058591 2.3273358
1.1500897 0.75133002 2.3296432
1.2498801 0.75007015 2.3319557
1.3225355 0.74897003 2.3336408
-0.11095775 0.84735066 2.300266
-0.049755652 0.850133 2.3016787
0.04982201 0.85098338 2.3039823
0.15001558 0.85087138 2.3063025
0.24957746 0.84853446 2.3086123
0.34975579 0.84938675 2.3109307
0.45013586 0.85024029 2.3132539
0.55071759 0.85109568 2.3155804
0.65137434 0.85047859 2.3179114
0.75038582 0.84861636 2.3202081
0.84946382 0.84945488 2.3225024
0.95085168 0.85031301 2.3248472
1.0503255 0.8511548 2.3271489
1.1495878 0.85043889 2.3294494
1.2499553 0.84873354 2.3317761
1.3222333 0.84925467 2.3334484
-0.10712723 0.94317573 2.3001785
-0.04975177 0.94751376 2.3014994
0.049818177 0.94846189 2.303803
0.14967412 0.94932294 2.3061137
0.24955757 0.94828689 2.3084285
0.34972817 0.94923878 2.3107462
0.45010006 0.95019257 2.3130691
0.55067348 0.95114899 2.3153944
0.65146238 0.94993287 2.3177326
0.75032532 0.94886976 2.3200235
0.84939611 0.94980687 2.3223162
0.95077544 0.95076644 2.3246608
1.0497499 0.95090437 2.3269536
1.1503109 0.94896853 2.3292842
1.2497694 0.94939822 2.3315871
1.322127 0.95007992 2.3332613
0.67243952 1.0003015 2.318125
0.75029457 1.0010788 2.319926
0.84936047 1.0020682 2.3222187
0.95073581 1.0030802 2.324564
1.0585395 1.002978 2.3270602
1.1498587 1.0029716 2.329175
1.2497151 1.0039666 2.3314855
1.3220695 1.0046874 2.3331592
-1.1297952 -0.4271242 2.4128759
-1.0580328 -0.43880919 2.4172122
-0.9497093 -0.43781728 2.4178996
-0.84120107 -0.43682367 2.418664
-0.74990946 -0.43598625 2.4198861
-0.65046751 -0.43508732 2.4148955
-0.55371433 -0.43419215 2.4199679
-0.45075491 -0.43323228 2.4288907
-0.34936172 -0.43231574 2.4237521
-0.24949296 -0.43141353 2.4184227
-0.14893231 -0.43048251 2.4240794
-0.050427075 -0.42956361 2.4328985
0.050284766 -0.42865363 2.4277444
0.15516539 -0.42769492 2.4278793
0.25024116 -0.42682207 2.4298739
0.33760753 -0.42331612 2.4272895
-1.1372255 -0.3500793 2.4137406
0.36288312 -0.34801757 2.4285381
-1.1381905 -0.25026685 2.4157891
0.36184388 -0.25002542 2.4345353
-1.1391187 -0.15280172 2.4171891
0.36105952 -0.15027696 2.4288204
-1.1399497 -0.0469083 2.4110212
0.36008048 -0.054244623 2.4329989
-1.1408687 0.049988475 2.4122488
0.35916328 0.050353412 2.4311028
-1.1418358 0.15007846 2.414294
0.35831335 0.15261325 2.4272232
-1.1428047 0.25033835 2.4163427
0.35727289 0.25058994 2.4332764
-1.1436551 0.34846988 2.4140837
0.3564752 0.34998134 2.4282794
-1.144511 0.45028073 2.4106359
0.35539398 0.45081452 2.4349561
-1.1375245 0.5410381 2.4122977
-1.0507727 0.56129014 2.4149919
-0.95115656 0.56220818 2.4187427
-0.85015368 0.56314027 2.4231517
-0.75239015 0.56402427 2.4185209
-0.64967865 0.56494957 2.4120388
-0.54845721 0.56588268 2.4160218
-0.44906405 0.56679904 2.4199347
-0.3493484 0.56771857 2.4238603
-0.24497721 0.56866956 2.4223049
-0.15055856 0.56953293 2.4223492
-0.05025861 0.57045776 2.4262829
0.050367597 0.5713855 2.4302287
0.15058729 0.57230896 2.4338815
0.25296786 0.57323962 2.431087
0.33850393 0.55874306 2.4310715
