# .PCD v0.7 - Point Cloud Data file format
VERSION 0.7
FIELDS x y z
SIZE 4 4 4
TYPE F F F
COUNT 1 1 1
WIDTH 426
HEIGHT 1
VIEWPOINT 0 0 0 1 0 0 0
POINTS 426
DATA ascii
-1.3239731 0.27764058 2.2999568
-1.3206688 0.3562606 2.2998812
-1.316509 0.45441273 2.2997873
-1.3134496 0.55106837 2.2996707
-1.2991066 0.57599926 2.2999508
-1.3133421 0.65045583 2.2994816
-1.2956001 0.65624005 2.2998762
-1.3132337 0.74982715 2.2992935
-1.291441 0.75311446 2.2997854
-1.3131251 0.84918183 2.2991037
-1.2872891 0.85157543 2.29969
-1.3130201 0.94645083 2.2989182
-1.283262 0.94812524 2.2995956
-1.3126655 -0.61174804 2.3019288
-1.2491611 -0.61213422 2.3033826
-1.1503516 -0.61073011 2.3056402
-1.0521644 -0.61001027 2.3078849
-0.94902498 -0.60979545 2.3102448
-0.84996027 -0.61039412 2.3125117
-0.75070083 -0.61099368 2.3147836
-0.65164691 -0.61152166 2.3170512
-0.55159456 -0.61010611 2.3193367
-0.45097086 -0.60876113 2.321636
-0.35170355 -0.6092152 2.3239081
-0.25146252 -0.60981661 2.3262024
-0.15368915 -0.60963982 2.328439
-0.050385267 -0.60892224 2.330801
0.050451774 -0.60952514 2.3331091
0.15148874 -0.6101293 2.3354218
0.25205913 -0.60892719 2.3377206
0.34748966 -0.60779989 2.339901
0.44944438 -0.60768902 2.3422332
0.54915106 -0.60828125 2.3445158
0.64905077 -0.60887432 2.3468025
0.74914712 -0.6094687 2.3490937
0.84943604 -0.60794508 2.3513849
0.95340657 -0.60717869 2.3537621
1.0506054 -0.60701215 2.3559856
1.1493381 -0.60759425 2.3582451
1.2478297 -0.60774934 2.3604989
1.332271 -0.60654378 2.3624287
-1.3126001 -0.55158329 2.3018148
-1.2486115 -0.55070263 2.3032765
-1.1507055 -0.54840547 2.3055122
-1.0499009 -0.54886413 2.3078196
-0.94897771 -0.54941338 2.3101287
-0.84991765 -0.54995263 2.312396
-0.75066316 -0.550493 2.3146672
-0.65121335 -0.55103451 2.3169444
-0.55156767 -0.55157685 2.3192248
-0.45165405 -0.54993808 2.3215079
-0.35168588 -0.54847598 2.3237917
-0.25144979 -0.54901755 2.3260851
-0.15101564 -0.54956013 2.3283846
-0.050382812 -0.55010366 2.3306878
0.050449293 -0.55064833 2.3329954
0.15148138 -0.55119413 2.3353078
0.25030065 -0.55000073 2.3375661
0.34991643 -0.55015725 2.3398461
0.44993111 -0.54948026 2.3421326
0.5491243 -0.54911691 2.3444014
0.64901924 -0.54965204 2.346688
0.7491104 -0.55018872 2.3489778
0.84939593 -0.55072623 2.3512726
0.94934481 -0.55004621 2.3535593
1.0505559 -0.54968131 2.3558741
1.1492835 -0.55020833 2.3581333
1.2503546 -0.55074823 2.3604469
1.3324218 -0.5494985 2.3623223
-1.3124899 -0.44993827 2.3016214
-1.2494824 -0.44902998 2.3030615
-1.1505283 -0.44858524 2.3053246
-1.0498141 -0.44903383 2.3076291
-0.94889897 -0.44948313 2.3099394
-0.84984761 -0.44992426 2.3122053
-0.75060105 -0.45036617 2.3144767
-0.65115887 -0.450809 2.3167527
-0.55152178 -0.45125273 2.3190322
-0.45191741 -0.45144442 2.3213117
-0.35165733 -0.4500488 2.3236022
-0.25134546 -0.44848117 2.3258946
-0.15100314 -0.44884008 2.3281908
-0.050378658 -0.44928396 2.3304932
0.050445125 -0.44972891 2.3328009
0.15146868 -0.4501746 2.3351126
0.25058115 -0.45061189 2.3373814
0.34988803 -0.45105016 2.3396542
0.44887477 -0.45031583 2.3419168
0.54907918 -0.44981652 2.3442094
0.64896584 -0.45025489 2.3464944
0.74946076 -0.45014977 2.3487945
0.84932458 -0.44901612 2.3510771
0.94979912 -0.4494552 2.3533764
1.0504694 -0.44989529 2.3556788
1.1491885 -0.45032665 2.3579392
1.2502509 -0.45076847 2.3602512
1.331879 -0.44946793 2.3621173
-1.3123797 -0.34831017 2.3014278
-1.248889 -0.34853005 2.3028805
-1.1504335 -0.34887111 2.3051341
-1.0497274 -0.34921992 2.3074386
-0.94882065 -0.34956941 2.3097475
-0.84977716 -0.34991184 2.3120146
-0.750539 -0.35025609 2.314286
-0.6511057 -0.35060036 2.3165605
-0.5514763 -0.35094514 2.3188405
-0.45165116 -0.35129118 2.3211246
-0.35162863 -0.35163793 2.3234131
-0.25149548 -0.34997982 2.325701
-0.15075308 -0.34996295 2.3280053
-0.05037443 -0.34848142 2.3302991
0.050440904 -0.34882623 2.3326061
0.15145606 -0.34917194 2.3349178
0.25056016 -0.34951091 2.3371859
0.34985852 -0.34985065 2.339458
0.44934854 -0.35019103 2.3417346
0.54903436 -0.35053262 2.3440168
0.65061152 -0.35052812 2.3463399
0.7502594 -0.35105559 2.3486218
0.84925473 -0.34944147 2.3508821
0.94972098 -0.3497839 2.3531821
1.0503827 -0.35012534 2.3554859
1.149094 -0.35046118 2.3577445
1.2501472 -0.35080504 2.3600569
1.3323095 -0.34999761 2.3619354
-1.3133899 -0.25065517 2.3012166
-1.2500011 -0.24843471 2.3026626
-1.1503385 -0.2491733 2.3049448
-1.0496409 -0.24942243 2.3072479
-0.94874245 -0.24967201 2.3095567
-0.84970689 -0.24991693 2.3118227
-0.75047672 -0.25016242 2.3140934
-0.65105176 -0.25040841 2.3163686
-0.55143082 -0.25065476 2.3186481
-0.45161349 -0.25090161 2.3209314
-0.35159948 -0.25114921 2.3232205
-0.25138789 -0.25139686 2.3255129
-0.15120862 -0.25139198 2.3278065
-0.050370332 -0.24979459 2.3301094
0.050436825 -0.25004178 2.3324161
0.1514437 -0.25028968 2.334728
0.2510553 -0.24950431 2.3370044
0.3498292 -0.24866857 2.339263
0.44931108 -0.24891058 2.3415389
0.54898822 -0.24915306 2.3438206
0.65098625 -0.24940115 2.346154
0.75105518 -0.24964455 2.348444
0.84918576 -0.24988317 2.3506887
0.94964284 -0.25012758 2.3529878
1.0502955 -0.25037238 2.3552916
1.1489992 -0.2506125 2.3575501
1.2500441 -0.25085825 2.3598619
1.3315575 -0.25001499 2.3617253
-1.3142099 -0.14924857 2.3010027
-1.2507313 -0.14934283 2.3024554
-1.1502438 -0.14949185 2.3047545
-1.0496202 -0.14876652 2.3106689
-0.94874197 -0.15831971 2.3117876
-0.84968042 -0.15845604 2.3136864
-0.75045568 -0.15859278 2.3155904
-0.65096211 -0.15864946 2.3175464
-0.55130732 -0.15886641 2.3193986
-0.45148295 -0.15892194 2.3213325
-0.35150138 -0.15914148 2.3232276
-0.25126424 -0.15912218 2.3254914
-0.15087771 -0.15750681 2.3308046
-0.050330002 -0.15764439 2.332741
0.050386343 -0.15778239 2.334687
0.15136722 -0.15784112 2.3367178
0.24991691 -0.15699512 2.338635
0.34980986 -0.15600638 2.3405702
0.45118654 -0.15317768 2.3430588
0.54894316 -0.14990194 2.3436282
0.65093225 -0.1500513 2.3459613
0.75099295 -0.1501978 2.3482521
0.84911579 -0.15034147 2.3504958
0.94956481 -0.15048838 2.3527935
1.0502092 -0.15063576 2.3550966
1.1489041 -0.1507801 2.3573554
1.2499418 -0.15092789 2.3596671
1.3319879 -0.15057658 2.3615432
-1.3141022 -0.049745888 2.3008137
-1.2506286 -0.049777303 2.3022652
-1.1501493 -0.04982698 2.3045642
-1.0515797 -0.0499469 2.3207719
0.48128861 -0.050417621 2.3531926
0.54889816 -0.050667446 2.3434355
0.65087885 -0.050717879 2.3457689
0.75093156 -0.05076737 2.348058
0.84904563 -0.050815918 2.3503032
0.94948643 -0.050865598 2.3526001
1.0501229 -0.05091536 2.3549035
1.1488098 -0.050964203 2.3571603
1.2498385 -0.051014174 2.3594723
1.3314452 -0.050613627 2.3613384
-1.3139941 0.049740437 2.3006241
-1.2505254 0.049771849 2.3020759
-1.1500543 0.04982153 2.3043742
-1.0516244 0.04994994 2.3208809
0.48117515 0.050401688 2.3526282
0.54885161 0.050661787 2.3432393
0.65082449 0.050712243 2.3455727
0.75086814 0.050761689 2.3478603
0.84897381 0.050810244 2.350105
0.94940633 0.050859883 2.3524053
1.0500343 0.050909676 2.3547046
1.1487128 0.050958496 2.3569617
1.2497332 0.051008441 2.3592732
1.3315471 0.051048916 2.3611443
-1.3138862 0.14921042 2.3004346
-1.2504225 0.14930461 2.3018866
-1.1499597 0.14945368 2.3041844
-1.0517075 0.14976966 2.321022
0.48130104 0.15049803 2.3522608
0.54916334 0.14957149 2.3430562
0.65077126 0.15001266 2.3453796
0.75080651 0.15015918 2.3476677
0.84890413 0.15030271 2.3499112
0.94932854 0.15044954 2.3522091
1.0499476 0.15059695 2.354511
1.1486182 0.15074123 2.3567672
1.2496302 0.15088892 2.3590784
1.3314371 0.15100862 2.3609495
-1.3130169 0.24650164 2.3002677
-1.2503198 0.24882104 2.3016977
-1.1498648 0.24906921 2.3039949
-1.0517516 0.24952394 2.3211288
0.48282143 0.24924244 2.3506916
0.55088371 0.24905418 2.3429036
0.65071744 0.24929696 2.3451872
0.75074464 0.24954019 2.3474748
0.84883446 0.24977875 2.3497198
0.94925052 0.25002271 2.352016
1.0498608 0.25026748 2.3543172
1.1485237 0.25050735 2.3565736
1.2495266 0.25075293 2.3588831
1.331327 0.25095183 2.3607547
-1.3088694 0.34600016 2.3001709
-1.2505021 0.34866285 2.3015006
-1.1497701 0.34866849 2.3038051
-1.051757 0.34936491 2.3212364
0.48275897 0.35017523 2.3500707
0.5508374 0.35033551 2.3427074
0.65066284 0.35067677 2.3449907
0.750682 0.35101867 2.3472774
0.84919107 0.35066584 2.3495328
0.95007944 0.34907502 2.3518438
1.0497744 0.34992152 2.3541224
1.1502153 0.35055768 2.3564193
1.2511871 0.35030341 2.3587301
1.3312172 0.35087851 2.3605597
-1.3047038 0.44341943 2.3000782
-1.2498351 0.4501985 2.3013203
-1.1500943 0.44887206 2.3036046
-1.0519114 0.44905567 2.3212099
0.48265502 0.45085257 2.3494642
0.55038768 0.4500559 2.3425047
0.65060949 0.44992813 2.3447974
0.75062031 0.45036697 2.347086
0.85135674 0.4495526 2.3493912
0.95123172 0.44912946 2.3516769
1.0496887 0.44955948 2.353929
1.1504805 0.44999969 2.3562341
1.2514712 0.4504407 2.3585434
1.3311073 0.45078868 2.3603644
-1.2490046 0.55091423 2.3011458
-1.1491673 0.55048198 2.3034303
-1.0519818 0.548922 2.3214152
0.48236331 0.55020928 2.3492677
0.55114251 0.54916334 2.3423307
0.65055609 0.54916292 2.3446047
0.75055873 0.54969841 2.3468933
0.85075802 0.55023527 2.3491831
0.95115167 0.55077285 2.3514793
1.0490847 0.55012161 2.3537216
1.1503865 0.5497188 2.3560398
1.2513667 0.55025744 2.3583486
1.3309976 0.5506826 2.3601699
-1.244732 0.65025783 2.3010519
-1.1494825 0.65151578 2.3032291
-1.0521653 0.65002054 2.3211749
0.48239422 0.64973539 2.3485715
0.55070114 0.64985937 2.3421268
0.65050161 0.65049249 2.344409
0.75033349 0.65094882 2.3466926
0.8506878 0.64964771 2.3489909
0.95107341 0.6502822 2.3512857
1.0500278 0.64968818 2.3535507
1.1502914 0.64942104 2.3558459
1.2512642 0.65005726 2.3581538
1.3308873 0.65055925 2.3599746
-1.2404537 0.74966782 2.3009579
-1.1493878 0.75104922 2.3030391
-1.0519334 0.75097746 2.3214934
0.48233491 0.75048971 2.347964
0.55065441 0.75107366 2.3419316
0.6502791 0.7498768 2.3442125
0.75060302 0.75023586 2.3465064
0.85061783 0.749044 2.3487992
0.95099461 0.74977481 2.3510928
1.0494268 0.75049454 2.3533432
1.149648 0.75018471 2.3556366
1.2511595 0.74984163 2.3579588
1.330777 0.75042009 2.3597796
-1.236261 0.84905308 2.3008626
-1.1492934 0.85056549 2.3028488
-1.0485079 0.85255784 2.3213758
-0.9507634 0.88293737 2.3361676
-0.84954196 0.88279188 2.3385201
-0.75030506 0.88327134 2.3399999
-0.65047014 0.88378918 2.3415084
-0.55061704 0.88462949 2.3383007
-0.45107183 0.88405514 2.3410754
-0.35053492 0.88431841 2.3426778
-0.25053194 0.88485759 2.3442721
-0.15041238 0.88541842 2.3457031
-0.050681785 0.88581562 2.3472157
0.050196283 0.88512313 2.3503373
0.15044029 0.88566869 2.3519933
0.25016084 0.88606381 2.3536069
0.35000768 0.88671803 2.3545692
0.46237594 0.86440438 2.3506649
0.55061013 0.85016263 2.3417394
0.65055758 0.84905094 2.3440278
0.75037253 0.84970808 2.3463094
0.8505469 0.85053778 2.3486009
0.9503997 0.85018992 2.3508854
1.0493406 0.85006517 2.3531506
1.1506487 0.84981859 2.3554678
1.2510571 0.84960842 2.3577659
1.3306673 0.85026407 2.3595848
-1.2321888 0.94649059 2.3007677
-1.149201 0.94799298 2.3026636
-1.0506572 0.94892019 2.3049164
-0.94931477 0.94877189 2.3072343
-0.84886515 0.9487403 2.3095334
-0.74973267 0.94967121 2.3118
-0.65040535 0.95060349 2.3140693
-0.55088264 0.95153809 2.3163443
-0.45087534 0.94863892 2.3186381
-0.35125062 0.94923466 2.3209162
-0.25113842 0.95017052 2.323204
-0.15082842 0.95110893 2.3254976
-0.050488394 0.95021999 2.327795
0.050386783 0.9487949 2.3301053
0.15129352 0.94973403 2.332412
0.25029096 0.95065552 2.3346756
0.34894776 0.95063174 2.3369319
0.45149302 0.94961172 2.3392794
0.55056471 0.9492352 2.3415473
0.65034044 0.95015979 2.343828
0.75007641 0.95081854 2.3461089
0.8504768 0.94990021 2.3484061
0.95135003 0.9496147 2.350714
1.0492543 0.94962066 2.3529558
1.1500053 0.95054954 2.355258
1.2505912 0.9498322 2.3575616
1.3305572 0.95009172 2.3593898
-0.45114648 1.0004772 2.3185322
-0.35123554 1.0014629 2.3208158
-0.25112751 1.0024502 2.3231037
-0.15082191 1.0034395 2.3253968
-0.044929616 1.0026881 2.3278208
0.05038454 1.003327 2.3300002
0.15128665 1.0043203 2.3323066
0.25027972 1.0052947 2.3345697
0.35458684 1.0051445 2.3369563
0.45096269 1.0051644 2.3391609
0.5505386 1.0061424 2.3414371
0.6503098 1.0071228 2.3437178
0.75204903 1.0077699 2.3460438
0.85043639 1.0069746 2.3482964
0.95079195 1.0079585 2.3505902
1.0492027 1.0089226 2.3528402
1.1499486 1.0099105 2.3551428
1.2526506 1.0091808 2.3574941
1.330492 1.0095563 2.3592744
-1.0257028 -0.11293799 2.430795
-0.95027536 -0.12098182 2.4417362
-0.8493275 -0.12070262 2.4361017
-0.74884075 -0.12042472 2.4304924
-0.64881927 -0.12014808 2.4249091
-0.54925275 -0.1198727 2.4193518
-0.45014507 -0.11959863 2.4138191
-0.34930068 -0.1193197 2.4081903
-0.25110009 -0.11904765 2.4026999
-0.037949339 -0.11827783 2.4772441
0.04897815 -0.11803778 2.4722164
0.14884862 -0.11776199 2.4664407
0.25045678 -0.11748046 2.4605443
0.35157308 -0.11719783 2.4546244
0.45375699 -0.11289268 2.4480071
-1.0284785 -0.050330069 2.4291987
0.47154275 -0.05014215 2.4458163
-1.0286924 0.048604533 2.425802
0.47127917 0.050104789 2.4444492
-1.0289731 0.15031286 2.4249821
0.47101095 0.15020943 2.4433126
-1.0292859 0.25000116 2.4258103
0.47075212 0.24966988 2.441839
-1.0295987 0.34976164 2.4266393
0.47048429 0.3495672 2.4407036
-1.0299052 0.4495734 2.4271786
0.47020373 0.45030212 2.4400122
-1.0302219 0.54989296 2.4281073
0.46972227 0.54911989 2.4483383
-1.0305326 0.65026832 2.4287484
0.46947324 0.65019751 2.4462404
-1.0308417 0.7502616 2.4293859
0.46919653 0.75071347 2.4453974
-1.0271744 0.8492974 2.4292312
-0.94760579 0.87900651 2.4282489
-0.84903097 0.87930363 2.4339929
-0.7497375 0.87959278 2.4349017
-0.64992762 0.87988341 2.4358127
-0.54955328 0.88016307 2.4305775
-0.45007849 0.88045204 2.4310718
-0.35017842 0.88074237 2.4319587
-0.25020874 0.88103378 2.4329424
-0.15054147 0.8813231 2.4334264
-0.048673999 0.88162822 2.4385853
0.050279997 0.88192022 2.4413431
0.1502317 0.88221121 2.4421504
0.24963053 0.88250005 2.4428697
0.34940857 0.88279015 2.4436748
0.4501802 0.86409289 2.4441874
