# .PCD v0.7 - Point Cloud Data file format
VERSION 0.7
FIELDS x y z
SIZE 4 4 4
TYPE F F F
COUNT 1 1 1
WIDTH 391
HEIGHT 1
VIEWPOINT 0 0 0 1 0 0 0
POINTS 391
DATA ascii
-1.3151512 -0.52647722 2.309938
-1.2493711 -0.52682185 2.31145
-1.1505495 -0.52733928 2.3137212
-1.0515349 -0.52785784 2.3159962
-0.95126915 -0.5275048 2.3183
-0.84877181 -0.52682906 2.3206544
-0.74851847 -0.52566814 2.3229568
-0.6493547 -0.52577424 2.3252361
-0.54935026 -0.52629399 2.327534
-0.44988576 -0.52631682 2.3298194
-0.34874767 -0.52523494 2.3321426
-0.25024688 -0.5257448 2.3344057
-0.15155327 -0.52625573 2.3366733
-0.050562359 -0.52677822 2.3389947
0.051404689 -0.52674633 2.341337
0.1499072 -0.52359265 2.3435984
0.24938008 -0.52410328 2.3458841
0.34904581 -0.52461517 2.3481741
0.44890806 -0.52512777 2.3504691
0.54896408 -0.5256412 2.3527684
0.64816111 -0.52486795 2.3550479
0.74966544 -0.52454793 2.3573797
0.85031223 -0.52506256 2.3596923
0.95220464 -0.52433515 2.3620331
1.0500454 -0.52395374 2.3642807
1.1483107 -0.5239327 2.3665388
1.2483964 -0.52282935 2.3688374
1.3327073 -0.52325714 2.3707752
-1.3151175 -0.44947097 2.3098788
-1.2493389 -0.44976532 2.3113904
-1.1505198 -0.45020711 2.3136606
-1.051507 -0.45064986 2.3159361
-0.95023012 -0.45110279 2.3182633
-0.84875035 -0.45155653 2.3205957
-0.74949646 -0.45035794 2.3228755
-0.64890206 -0.4488529 2.3251855
-0.54933608 -0.44870117 2.3274734
-0.449137 -0.44914526 2.3297756
-0.34873879 -0.44958994 2.3320825
-0.25024047 -0.45002633 2.3343463
-0.15154931 -0.45046365 2.3366144
-0.050561097 -0.4509111 2.3389349
0.050228149 -0.45084661 2.3412504
0.14990358 -0.44968742 2.3435402
0.24937391 -0.45012623 2.3458254
0.35062382 -0.45017713 2.3481526
0.45047379 -0.44930503 2.350445
0.54894996 -0.44932741 2.3527083
0.64920104 -0.44976732 2.3550131
0.74964672 -0.45020831 2.3573196
0.85029089 -0.45065007 2.3596334
0.95061326 -0.4499093 2.3619373
1.0500184 -0.44939646 2.3642213
1.1490966 -0.44982913 2.3664985
1.2483662 -0.45026273 2.3687799
1.332675 -0.45063096 2.370717
-1.3150731 -0.34957698 2.3098009
-1.2492968 -0.34980619 2.3113127
-1.1504812 -0.35014951 2.3135841
-1.0514723 -0.35049373 2.3158572
-0.95019794 -0.35084596 2.3181851
-0.84872127 -0.35119915 2.3205171
-0.74911737 -0.35154521 2.3228064
-0.64975917 -0.35042551 2.325088
-0.54931748 -0.35014325 2.3273959
-0.448892 -0.34864461 2.3297021
-0.34872711 -0.34873551 2.3320034
-0.25023219 -0.34907398 2.3342669
-0.15154436 -0.34941304 2.336535
-0.050559308 -0.34976012 2.3388548
0.050626375 -0.35010821 2.3411798
0.14989853 -0.35044923 2.3434615
0.24936563 -0.35079086 2.3457477
0.35114878 -0.3511408 2.3480861
0.45100752 -0.34936637 2.3503792
0.54893136 -0.34970093 2.3526292
0.64917892 -0.35004294 2.3549333
0.74962109 -0.35038626 2.3572407
0.8502624 -0.35073003 2.3595533
0.95162326 -0.34994352 2.3618822
1.0499824 -0.34928256 2.3641419
1.1490581 -0.34961846 2.3664181
1.248324 -0.34995556 2.3687
1.33263 -0.3502419 2.3706367
-1.3150291 -0.24968952 2.3097227
-1.2492553 -0.24985296 2.311235
-1.1504431 -0.25009838 2.3135049
-1.0514369 -0.25034422 2.3157809
-0.95016569 -0.25059584 2.3181071
-0.84869272 -0.25084797 2.3204393
-0.74909174 -0.25109544 2.3227282
-0.64929432 -0.25134334 2.3250208
-0.54929948 -0.25159162 2.3273194
-0.44934359 -0.25001326 2.3296142
-0.34871542 -0.24998891 2.3319261
-0.25022385 -0.25023153 2.3341899
-0.15109165 -0.24984294 2.3364666
-0.050557587 -0.24861638 2.3387759
0.05062462 -0.24886352 2.3411007
0.14989328 -0.24910603 2.3433816
0.24935699 -0.24934904 2.3456664
0.35113701 -0.24959761 2.348006
0.45099247 -0.24984156 2.3503006
0.54891312 -0.25008079 2.3525507
0.64915699 -0.25032553 2.3548541
0.74959636 -0.25057095 2.3571622
0.85023379 -0.25081664 2.3594747
0.95054209 -0.24997389 2.361779
1.0499481 -0.2491747 2.3640621
1.1490192 -0.24941456 2.366339
1.2482814 -0.24965508 2.3686202
1.3325845 -0.24985929 2.3705566
-1.3149849 -0.14980875 2.3096457
-1.2492124 -0.14990681 2.3111565
-1.1504031 -0.15005416 2.3134267
-1.0514011 -0.15020147 2.3157029
-0.95013368 -0.1503527 2.3180294
-0.84866416 -0.1505037 2.3203604
-0.74906659 -0.15065219 2.322649
-0.64927256 -0.15080079 2.3249424
-0.54928094 -0.15094995 2.3272398
-0.44909179 -0.15109928 2.3295419
-0.34870383 -0.15124899 2.3318484
-0.25021541 -0.15139571 2.3341122
-0.15197378 -0.15094644 2.3363686
-0.05055593 -0.14958617 2.3386977
0.050622925 -0.14973502 2.3410232
0.14988841 -0.14988095 2.3433044
0.24934876 -0.15002702 2.3455892
0.35112485 -0.15017657 2.3479273
0.45097724 -0.15032353 2.3502219
0.54889452 -0.15046731 2.3524716
0.64913505 -0.15061469 2.354775
0.74957108 -0.15076225 2.3570838
0.85020542 -0.15091015 2.3593955
0.95155329 -0.15011147 2.3617229
1.0499126 -0.14907393 2.3639829
1.1489807 -0.14921753 2.3662593
1.2482399 -0.14936146 2.3685403
1.3325399 -0.14948355 2.370477
-1.3149408 -0.049934763 2.3095677
-1.2491711 -0.049967401 2.3110793
-1.1503651 -0.050016563 2.3133497
-1.0453635 -0.047012296 2.322263
-0.9500497 -0.075498551 2.3220656
-0.84868568 -0.075405948 2.3236725
-0.74911809 -0.075535282 2.3248188
-0.6494478 -0.075507574 2.3261616
-0.54933333 -0.075479038 2.3274479
-0.44908014 -0.075547628 2.3294826
-0.3486948 -0.075622469 2.331789
-0.250209 -0.07569585 2.3340523
-0.15153027 -0.07576938 2.3363192
-0.050554678 -0.075844616 2.3386395
0.05062167 -0.075920016 2.3409643
0.14988469 -0.075994007 2.3432457
0.24934244 -0.076068096 2.3455303
0.35111624 -0.07614395 2.3478696
0.45738277 -0.068714663 2.3523772
0.54887611 -0.050860684 2.3523936
0.64911383 -0.05091048 2.3546963
0.74954563 -0.050960395 2.3570042
0.85017681 -0.051010367 2.3593156
0.95048809 -0.050157133 2.3616211
1.0498762 -0.04897996 2.3639028
1.1489416 -0.049027115 2.3661795
1.2481978 -0.0490744 2.3684604
1.3324946 -0.049114536 2.3703966
-1.3148967 0.049932525 2.3094904
-1.2491288 0.049965218 2.3110023
-1.150327 0.050014291 2.3132715
-1.0416646 0.050033219 2.3264472
0.49420518 0.050067849 2.3643188
0.54913396 0.051099163 2.3523188
0.6493482 0.05067518 2.3546221
0.74952 0.050958045 2.3569231
0.85014743 0.051008061 2.3592348
0.95047241 0.050246622 2.361541
1.0498424 0.048977807 2.3638248
1.1489037 0.049024977 2.3661013
1.2488334 0.049518634 2.3683972
1.3330801 0.048450384 2.3703332
-1.3148522 0.14979313 2.309412
-1.2490869 0.149891 2.3109241
-1.1502876 0.15003826 2.3131936
-1.0416636 0.15016589 2.3266881
0.49401718 0.15012679 2.3642821
0.55097032 0.15045464 2.3522832
0.65120298 0.15060207 2.3545859
0.74949485 0.15074649 2.3568439
0.8501187 0.15089431 2.3591561
0.95144218 0.15018897 2.3614841
1.0498066 0.14905857 2.3637459
1.1488646 0.14920196 2.3660214
1.2502745 0.14934893 2.3683512
1.3345685 0.14947098 2.3702893
-1.314808 0.24964695 2.3093348
-1.2490449 0.24981019 2.3108454
-1.1502496 0.25005567 2.3131163
-1.0417974 0.2502428 2.3266449
0.4939608 0.25015673 2.3631406
0.55095154 0.25004324 2.3522053
0.65118122 0.25028795 2.3545063
0.74946964 0.25052813 2.3567648
0.85008973 0.25077391 2.3590765
0.9504658 0.25039041 2.3613839
1.0497712 0.24913235 2.3636658
1.1488264 0.24937226 2.3659418
1.2502321 0.24961779 2.3682716
1.3345232 0.24982196 2.370208
-1.3147638 0.34949419 2.309257
-1.2490027 0.34972245 2.3107681
-1.1502105 0.35006618 2.3130372
-1.0417957 0.35026044 2.3268728
0.49378577 0.34960392 2.3628407
0.55093336 0.34962523 2.3521256
0.6511603 0.3499676 2.3544283
0.74944448 0.35030308 2.3566859
0.8500613 0.35064662 2.3589971
0.95132387 0.3503255 2.3613241
1.0497358 0.34919959 2.3635867
1.1487876 0.34953585 2.3658617
1.2501898 0.3498798 2.3681922
1.3344784 0.35016593 2.3701277
-1.3147198 0.44933453 2.3091798
-1.248961 0.44962856 2.3106906
-1.1501725 0.45007005 2.3129601
-1.0418367 0.45035326 2.3269062
0.49371913 0.44899815 2.3619759
0.55091506 0.44920036 2.3520458
0.65113813 0.4496401 2.3543491
0.74941951 0.45007125 2.3566058
0.85003293 0.45051274 2.358918
0.95048976 0.45050624 2.3612258
1.0497009 0.44925988 2.3635068
1.1487489 0.44969252 2.3657823
1.2501482 0.45013535 2.3681121
1.3344334 0.45050341 2.3700483
-1.3146756 0.54916829 2.3091018
-1.2489189 0.54952782 2.3106122
-1.1501334 0.55006748 2.3128819
-1.0418791 0.55045676 2.3269804
0.49355498 0.54993671 2.3616202
0.55089605 0.55088717 2.3519659
0.65081203 0.54968619 2.3542626
0.74939412 0.54983276 2.3565278
0.85000443 0.550372 2.3588383
0.95117283 0.55043626 2.3611634
1.0496658 0.54931343 2.3634267
1.1487099 0.54984248 2.3657022
1.2501057 0.55038357 2.3680315
1.334084 0.55014068 2.3699617
-1.3146316 0.64899534 2.3090246
-1.248877 0.64942014 2.3105357
-1.1500945 0.65005779 2.3128045
-1.0425445 0.65018809 2.3257363
0.49290869 0.65116405 2.3681173
0.55087757 0.65044874 2.3518867
0.65139008 0.64932317 2.3541977
0.74936938 0.64958763 2.3564475
0.84997594 0.65022486 2.3587594
0.95048141 0.65050411 2.3610685
1.0496306 0.64936042 2.3633475
1.1486714 0.64998567 2.3656228
1.2500638 0.65062582 2.3679519
1.3346524 0.65042764 2.3698955
-1.3145872 0.74881554 2.3089473
-1.2488346 0.74930555 2.3104582
-1.1500553 0.75004184 2.3127267
-1.0430498 0.75063312 2.3248384
0.49277002 0.75000304 2.3678241
0.5508588 0.75000405 2.3518076
0.65107185 0.75073838 2.3541105
0.74910235 0.74962062 2.3563631
0.84994781 0.75007063 2.3586793
0.95105302 0.75042599 2.3610029
1.0495943 0.74939978 2.3632681
1.1486331 0.75012171 2.3655429
1.2495072 0.75007898 2.3678603
1.3342993 0.74934 2.3698096
-1.3145425 0.8486293 2.3088701
-1.2487923 0.84918427 2.3103795
-1.1500168 0.8500185 2.312649
-1.0430006 0.85078377 2.3250134
0.49263033 0.85044783 2.3669729
0.55067146 0.84973449 2.3517246
0.65105009 0.850384 2.3540306
0.74955249 0.84934568 2.3562958
0.84991908 0.84991032 2.3585999
0.95055073 0.8505649 2.3609123
1.0495578 0.84943432 2.3631883
1.1485938 0.85025179 2.3654635
1.250499 0.85027194 2.3678048
1.3342541 0.8496505 2.3697295
-1.3144988 0.94843596 2.3087919
-1.2487507 0.94905609 2.3103027
-1.1499784 0.94998837 2.312571
-1.0458108 0.94817764 2.3210554
-0.95033979 0.96382523 2.3314924
-0.84897727 0.96305388 2.3343396
-0.74921894 0.96375823 2.3357625
-0.64942753 0.96451038 2.3374717
-0.5497424 0.96486044 2.3394012
-0.44921005 0.96410722 2.3416009
-0.3489849 0.96477687 2.3433731
-0.2499402 0.96524203 2.3453422
-0.15087907 0.96622264 2.3467157
-0.050628699 0.96533889 2.3489301
0.049733974 0.96618789 2.3497272
0.14981049 0.96730191 2.3501339
0.24950029 0.96823174 2.3517044
0.35008326 0.96792454 2.3536961
0.45542958 0.96215016 2.3570843
0.5509854 0.9492653 2.3516529
0.65102816 0.95002294 2.3539522
0.74894112 0.95048434 2.3562012
0.84989011 0.9497425 2.3585219
0.95085281 0.95048374 2.3608406
1.0495247 0.94946092 2.3631091
1.1485554 0.95037478 2.3653831
1.2496274 0.94954348 2.3677065
1.3342088 0.94995427 2.3696492
-0.91667581 1.0002011 2.3178916
-0.84833556 1.0008783 2.3194618
-0.7487762 1.0018653 2.3217487
-0.64902037 1.002854 2.3240392
-0.54311085 1.0033048 2.326473
-0.44891724 1.0027403 2.3286374
-0.34856835 1.0037327 2.3309426
-0.25011802 1.0047064 2.3332038
-0.15147513 1.005682 2.3354695
-0.048614841 1.0047771 2.3378336
0.050603256 1.0055735 2.3401124
0.14983001 1.0065528 2.3423917
0.24925163 1.0075341 2.3446751
0.35444194 1.0071955 2.3470926
0.45080164 1.0074078 2.3493066
0.55081123 1.0083928 2.3516033
0.65101504 1.0093796 2.3539052
0.75126261 1.0098201 2.3562083
0.84987313 1.0092142 2.3584745
0.95066381 1.0102048 2.3607895
1.0495026 1.0111766 2.36306
1.1485316 1.0121498 2.3653345
1.251145 1.0113304 2.3676922
1.3341811 1.0118407 2.369601
-1.0087727 -0.026316725 2.4344571
-0.20810492 -0.051466655 2.4839306
-0.1495499 -0.051323596 2.4770265
-0.04889499 -0.051077697 2.4651582
0.050792884 -0.050834123 2.4534028
0.15171996 -0.050586969 2.4414747
0.25166935 -0.050341967 2.4296501
0.35065517 -0.050099343 2.4179401
0.47856456 -0.031562585 2.4349146
-1.0089812 0.050454278 2.4349599
0.49119714 0.050224893 2.4450407
-1.0092436 0.15029554 2.4352412
0.49096274 0.15014689 2.4440727
-1.0095237 0.24982443 2.4363093
0.49073678 0.24998501 2.4427493
-1.0097867 0.34976745 2.4365926
0.49051091 0.34973171 2.4414294
-1.0100671 0.45014045 2.4375832
0.49027485 0.45024985 2.4404626
-1.010208 0.55046886 2.4324954
0.48986235 0.55200779 2.4470263
-1.0104017 0.65235043 2.4295161
0.48937243 0.64933717 2.4574625
-1.0106252 0.74995112 2.4283326
0.48913291 0.75028437 2.4566033
-1.0108906 0.84970087 2.4286962
0.48889908 0.84992766 2.4556274
-1.0102561 0.92707765 2.4299121
-0.9509806 0.9466002 2.4324908
-0.85040945 0.94685674 2.4331505
-0.75015712 0.9471125 2.4332733
-0.64856982 0.94737351 2.4358764
-0.54998374 0.94762903 2.440702
-0.45021766 0.94788367 2.4412134
-0.35008907 0.94813949 2.4420171
-0.24990888 0.94839555 2.4426746
-0.15029617 0.9486503 2.4432616
-0.050328314 0.94890583 2.4439178
0.051904798 0.94916505 2.4423516
0.15003812 0.94941831 2.4455409
0.24996711 0.94967353 2.4458022
0.34970662 0.94992858 2.4464595
0.4549306 0.94412541 2.4489238
0.48880705 0.48430154 2.5004551
0.48874503 0.51126766 2.5001378
