# .PCD v0.7 - Point Cloud Data file format
VERSION 0.7
FIELDS x y z
SIZE 4 4 4
TYPE F F F
COUNT 1 1 1
WIDTH 409
HEIGHT 1
VIEWPOINT 0 0 0 1 0 0 0
POINTS 409
DATA ascii
-1.3239877 0.89094633 2.2999821
-1.3216753 0.95652717 2.299907
-1.3133603 -0.60377258 2.3031476
-1.241623 -0.6028204 2.3047965
-1.1558417 -0.60240221 2.3067689
-1.0505241 -0.60119605 2.30919
-0.94954675 -0.60180134 2.3115144
-0.85043222 -0.60239524 2.313796
-0.75112182 -0.60299063 2.3160827
-0.6785906 -0.6034252 2.3177521
-0.52695864 -0.60014963 2.3212345
-0.45200804 -0.60059553 2.3229597
-0.35190868 -0.60119164 2.3252642
-0.25161055 -0.60178846 2.3275731
-0.19301938 -0.60213721 2.3289218
0.17688046 -0.60012525 2.3374288
0.24231829 -0.60051203 2.3389351
-1.3131585 -0.55096924 2.3030491
-1.2502711 -0.54913175 2.3044922
-1.1512494 -0.54861444 2.3067696
-1.0504789 -0.54916632 2.3090889
-0.94950551 -0.54971892 2.3114135
-0.85039496 -0.55026162 2.3136947
-0.75108892 -0.55080551 2.3159814
-0.65158689 -0.55134988 2.3182714
-0.55241758 -0.55086923 2.3205516
-0.45155299 -0.54885024 2.3228688
-0.35189331 -0.54879963 2.3251624
-0.25159952 -0.54934442 2.3274705
-0.1511064 -0.5498907 2.3297839
-0.050413366 -0.55043739 2.3321021
0.050480276 -0.55098575 2.3344247
0.14896043 -0.55062693 2.3366895
0.24864642 -0.54995435 2.3389823
0.35049748 -0.55005074 2.3413258
0.44970798 -0.54893023 2.3436048
0.54947591 -0.54946816 2.3459029
0.64943814 -0.55000722 2.3482034
0.74911749 -0.54985815 2.3504968
0.84995335 -0.54896766 2.3528154
0.95050746 -0.5495078 2.3551297
1.051258 -0.55004865 2.3574491
1.1500587 -0.55057937 2.3597233
1.2490472 -0.54898202 2.3619983
1.3309599 -0.54729015 2.3638794
-1.3133332 -0.4493092 2.3028469
-1.2496638 -0.44838777 2.3043089
-1.1511536 -0.44882903 2.306577
-1.0503912 -0.4492805 2.3088953
-0.94942594 -0.44973272 2.3112204
-0.85032386 -0.45017651 2.3135011
-0.75102603 -0.45062125 2.3157866
-0.65153164 -0.45106682 2.3180773
-0.55184054 -0.45151329 2.3203714
-0.45239457 -0.45049435 2.3226578
-0.3513478 -0.44907185 2.3249791
-0.25157851 -0.44866356 2.327275
-0.1510936 -0.44910941 2.329587
-0.050409108 -0.44955608 2.3319046
0.050475989 -0.45000395 2.3342271
0.14945345 -0.45044309 2.3365049
0.24862593 -0.45088312 2.3387878
0.34975523 -0.45090657 2.3411152
0.44967026 -0.44966325 2.3434114
0.54943007 -0.45010394 2.3457069
0.6493842 -0.45054531 2.3480079
0.74976933 -0.44912559 2.3503149
0.84988141 -0.44931066 2.3526187
0.95042777 -0.44975269 2.3549333
1.05117 -0.45019555 2.3572521
1.1499625 -0.45062986 2.3595266
1.2484179 -0.44997439 2.3617902
1.330851 -0.44929469 2.3636849
-1.3130795 -0.34849581 2.3026555
-1.2495589 -0.34871709 2.3041174
-1.1510575 -0.34906036 2.3063841
-1.0503026 -0.3494114 2.3087039
-0.94934642 -0.34976315 2.3110259
-0.85025263 -0.35010794 2.313307
-0.75096309 -0.350454 2.3155923
-0.65147722 -0.35080042 2.3178825
-0.55179411 -0.35114744 2.3201764
-0.45191368 -0.35149571 2.3224757
-0.35235468 -0.35064167 2.3247645
-0.25155738 -0.35009632 2.3270822
-0.15064296 -0.34894046 2.329402
-0.050404828 -0.34869179 2.3317077
0.050471734 -0.34903881 2.3340297
0.14944082 -0.3493799 2.3363073
0.2486046 -0.34972078 2.3385894
0.35007796 -0.35007024 2.3409245
0.44963285 -0.35041285 2.3432171
0.54938436 -0.35075575 2.3455133
0.64933002 -0.35110036 2.3478127
0.74923062 -0.34960088 2.3501079
0.84981102 -0.34967032 2.3524222
0.95034844 -0.35001418 2.354737
1.0510821 -0.35035875 2.3570545
1.1498663 -0.35069674 2.3593283
1.2493209 -0.35027549 2.3616157
1.3307391 -0.34918585 2.3634868
-1.3129698 -0.24890506 2.3024628
-1.249455 -0.24906309 2.3039246
-1.1509614 -0.24930817 2.3061919
-1.0502145 -0.24955869 2.3085108
-0.94926685 -0.24980995 2.3108332
-0.8501811 -0.25005662 2.3131142
-0.75090003 -0.25030339 2.3153982
-0.65142232 -0.25055087 2.3176875
-0.55174756 -0.25079885 2.3199816
-0.45187569 -0.2510474 2.3222799
-0.35180557 -0.2512964 2.3245823
-0.25153691 -0.25154576 2.3268895
-0.15151453 -0.25032637 2.3291886
-0.050400663 -0.24994524 2.3315146
0.050467562 -0.25019425 2.3338363
0.14959511 -0.25024831 2.3361175
0.24858363 -0.24857599 2.3383913
0.35004818 -0.24882419 2.3407264
0.44959459 -0.24906769 2.3430183
0.54933786 -0.24931163 2.3453131
0.6492753 -0.2495562 2.3476126
0.74940991 -0.24980119 2.3499174
0.84974027 -0.25004664 2.3522265
0.95026904 -0.25029245 2.3545401
1.0509942 -0.25053886 2.356858
1.14977 -0.25078055 2.3591311
1.2482597 -0.2503016 2.3613956
1.3306273 -0.24909353 2.3632891
-1.3128604 -0.14933082 2.3022711
-1.2493507 -0.14942564 2.3037329
-1.1508651 -0.14957258 2.3059988
-1.049768 -0.14904162 2.3095293
-0.9492889 -0.15005022 2.3127489
-0.85016608 -0.15018295 2.3146863
-0.75087684 -0.15031609 2.3166289
-0.65133244 -0.15036771 2.3186171
-0.55162442 -0.150583 2.3205204
-0.45174307 -0.15063398 2.3224916
-0.35170376 -0.15085222 2.3244579
-0.25151548 -0.15091504 2.3266947
-0.15105583 -0.15106502 2.3290055
-0.049905326 -0.15036787 2.3324707
0.050429475 -0.14944568 2.3359592
0.14930806 -0.14923579 2.3380675
0.24865736 -0.14760472 2.3399024
0.35004994 -0.1476551 2.3419392
0.44922751 -0.14821941 2.3436687
0.54929221 -0.14999731 2.3451166
0.649221 -0.15014443 2.3474169
0.74934733 -0.1502918 2.3497219
0.84966958 -0.15043952 2.35203
0.95018959 -0.15058739 2.3543427
1.0509065 -0.15073557 2.3566599
1.1496735 -0.15088105 2.3589334
1.2489934 -0.15054901 2.3612182
1.3305163 -0.14901815 2.3630903
-1.3127509 -0.049773257 2.3020794
-1.2492467 -0.049804822 2.30354
-1.150769 -0.049853858 2.3058062
-1.0500475 -0.049905229 2.3218784
0.4835442 -0.050373845 2.3538127
0.54924643 -0.050699603 2.3449237
0.649167 -0.050749306 2.3472216
0.74928474 -0.050799102 2.3495247
0.84959787 -0.05084902 2.3518343
0.95011032 -0.05089904 2.354147
1.0508187 -0.05094913 2.3564637
1.1495775 -0.050998244 2.358736
1.2481707 -0.050599955 2.3610034
1.3304044 -0.048959434 2.3628926
-1.3126414 0.049767721 2.3018873
-1.2491423 0.049799308 2.3033478
-1.150673 0.049848299 2.3056133
-1.0500846 0.049907848 2.3219721
0.4834213 0.050356746 2.3532045
0.54919982 0.050693862 2.3447247
0.64911157 0.050743595 2.3470216
0.74922115 0.050793376 2.3493252
0.84952563 0.050843265 2.3516335
0.95002908 0.050893236 2.3539462
1.0507296 0.050943345 2.3562622
1.1494793 0.050992467 2.3585351
1.2483338 0.050952822 2.3608086
1.3302952 0.048954081 2.3626986
-1.3125319 0.14929214 2.3016956
-1.2490379 0.14938682 2.3031552
-1.1505771 0.14953378 2.3054209
-1.0500869 0.14979619 2.3222232
0.4831804 0.14968422 2.3529584
0.54915404 0.14995837 2.344528
0.64905822 0.15010537 2.3468263
0.74915856 0.15025268 2.3491299
0.84945434 0.15040022 2.3514371
0.94995028 0.15054806 2.3537495
1.0506408 0.15069614 2.356065
1.1493833 0.1508415 2.3583374
1.2494528 0.15141341 2.3606389
1.3311362 0.14810924 2.3625243
-1.3124225 0.24879998 2.3015032
-1.2489338 0.24895769 2.3029633
-1.1504806 0.24920267 2.3052287
-1.0501999 0.24961895 2.322144
0.48313421 0.24924105 2.3521757
0.54910833 0.24920624 2.3443322
0.64900386 0.24945046 2.3466318
0.74909645 0.24969524 2.3489337
0.84938467 0.24994054 2.3512416
0.94987065 0.25018606 2.3535531
1.0505537 0.25043228 2.3558688
1.149287 0.25067383 2.3581405
1.2503641 0.25092098 2.360465
1.3320683 0.24930815 2.3623481
-1.3126136 0.34727895 2.301306
-1.2491826 0.34879673 2.3027627
-1.1503847 0.34885532 2.3050368
-1.0502012 0.34937641 2.3223803
0.48301184 0.35033026 2.3514581
0.54906178 0.3505486 2.3441355
0.64922434 0.35113311 2.3464386
0.74893528 0.35057342 2.3487339
0.84931302 0.34946376 2.3510442
0.94979137 0.34980774 2.3533561
1.0504661 0.35015231 2.3556721
1.1491909 0.35048968 2.3579431
1.250259 0.35083506 2.3602679
1.332271 0.34928098 2.3621573
-1.3142477 0.44982868 2.301069
-1.2511487 0.44962987 2.3025205
-1.1502887 0.44849035 2.3048437
-1.050238 0.44921461 2.3223991
0.48284626 0.44951513 2.3510251
0.54901588 0.4497633 2.3439391
0.6510222 0.4502134 2.3462856
0.75146037 0.45018128 2.3485968
0.84924239 0.44897124 2.3508492
0.94971192 0.4494127 2.353159
1.0503781 0.44985482 2.3554747
1.1490943 0.45028847 2.3577456
1.2501545 0.45073223 2.3600702
1.3316883 0.44989708 2.3619468
-1.314136 0.55135626 2.3008733
-1.2502795 0.55119479 2.3023429
-1.1506938 0.54916525 2.3046374
-1.050275 0.54906327 2.3224623
0.48272207 0.54891557 2.3504124
0.54897034 0.54896122 2.3437462
0.65096831 0.54951096 2.3460894
0.75103825 0.5500499 2.3483922
0.84917057 0.55057836 2.3506486
0.94922626 0.55060422 2.3529501
1.0502903 0.54954094 2.355278
1.1489986 0.55007052 2.3575487
1.2500496 0.55061281 2.3598726
1.3322053 0.54981637 2.361764
-1.3140265 0.65079504 2.3006797
-1.25056 0.65120769 2.3021402
-1.1495905 0.65080601 2.3044646
-1.0505126 0.64914596 2.3225434
0.48268345 0.64984852 2.3495591
0.54892379 0.65025306 2.3435459
0.65091288 0.65090382 2.3458908
0.75056893 0.64999425 2.3481858
0.84909904 0.65005195 2.3504524
0.94996625 0.65014666 2.3527737
1.0502021 0.64921057 2.3550816
1.1489025 0.64983636 2.3573511
1.249946 0.65047634 2.3596754
1.3315201 0.65040427 2.3615515
-1.3139167 0.75021708 2.3004885
-1.2504561 0.75069338 2.3019485
-1.1499965 0.75144672 2.3042588
-1.0509959 0.74955338 2.3212099
0.4818151 0.75193095 2.3528259
0.54833871 0.75040305 2.3433375
0.6508587 0.75016803 2.3456957
0.75131071 0.74932659 2.3480077
0.84902871 0.74950856 2.3502564
0.94947273 0.75024551 2.3525658
1.0498157 0.75062501 2.3548741
1.1488066 0.74958521 2.3571534
1.2498401 0.75032318 2.3594773
1.3319329 0.75029784 2.3613658
-1.3135164 0.84844184 2.3003068
-1.2503514 0.85016149 2.3017566
-1.1499001 0.85101449 2.3040659
-1.0482512 0.85411829 2.3218746
-0.9496243 0.89575386 2.3509066
-0.84974527 0.89611173 2.3514683
-0.75046527 0.89646566 2.3523967
-0.65064853 0.89682549 2.3533893
-0.55190241 0.89703453 2.3561921
-0.45142621 0.89712095 2.3582675
-0.35005984 0.89743561 2.3549454
-0.25014511 0.89781237 2.3562016
-0.15014945 0.89819032 2.3571234
-0.051732723 0.89836711 2.3610845
0.050053056 0.89858335 2.3634703
0.14981315 0.89887494 2.3647542
0.2500056 0.89916581 2.3652039
0.3502779 0.89948511 2.3660393
0.46829286 0.86463755 2.3594329
0.54936904 0.84951466 2.3431656
0.65080422 0.84941459 2.3455
0.75084895 0.8502478 2.3478003
0.84865981 0.85070676 2.3500497
0.94939321 0.84978348 2.3523695
1.0503311 0.85024029 2.354691
1.14871 0.84931695 2.3569572
1.2497352 0.85015416 2.3592787
1.331556 0.85083181 2.3611608
-1.3102108 0.94274741 2.3001974
-1.2502495 0.94754171 2.3015678
-1.1498066 0.94849265 2.3038771
-1.0511315 0.94933617 2.3061461
-0.95037353 0.94830233 2.3084664
-0.84932709 0.94925624 2.3107898
-0.75014514 0.95019329 2.3130693
-0.65076643 0.95113182 2.3153541
-0.55120289 0.95007241 2.3176477
-0.45142153 0.9488377 2.3199453
-0.35145152 0.94977784 2.3222439
-0.25128344 0.95071942 2.3245461
-0.15138823 0.95098019 2.3268445
-0.049911506 0.94901282 2.3291836
0.050416831 0.94935918 2.331491
0.15138432 0.95030433 2.333812
0.25028151 0.95105422 2.3360863
0.34969652 0.95005554 2.3383753
0.4505758 0.94936615 2.3406987
0.55017984 0.9493379 2.3429899
0.65074897 0.95075703 2.3453014
0.7504276 0.95004755 2.3475964
0.84919006 0.95010984 2.3498681
0.9493137 0.94930512 2.3521738
1.0499377 0.95023853 2.3544872
1.1480979 0.95024872 2.356745
1.249632 0.94996786 2.3590825
1.3314447 0.95072532 2.3609631
-0.52832931 1.0002803 2.3180754
-0.45140171 1.0010434 2.3198438
-0.35143614 1.0020351 2.3221419
-0.25127238 1.0030288 2.3244445
-0.14253707 1.0030599 2.3269465
-0.050347764 1.0029254 2.3290679
0.050414518 1.0039231 2.3313842
0.15137744 1.0049225 2.3337052
0.25227776 1.0056585 2.3360255
0.34968054 1.0047805 2.3382683
0.45124069 1.0057839 2.3406031
0.55088115 1.0067682 2.3428938
0.65071803 1.0077548 2.3451891
0.75295407 1.0070157 2.3475428
0.84884477 1.0075973 2.3497477
0.94926691 1.0085869 2.3520567
1.0498852 1.0095789 2.3543699
1.1512926 1.0095387 2.356703
1.2495691 1.009424 2.3589642
1.331378 1.0102289 2.3608453
-1.0250539 -0.10272789 2.4262297
-0.93003458 -0.10407432 2.4580295
-0.84848404 -0.10384829 2.4526911
-0.74927515 -0.10357332 2.4461968
-0.65059018 -0.10329978 2.4397366
-0.55020207 -0.10302155 2.4331653
-0.45034933 -0.10274481 2.4266291
-0.35103554 -0.10246954 2.4201279
-0.25006127 -0.10218968 2.413518
-0.1496377 -0.10191181 2.4069548
-0.071410492 -0.10169569 2.4018509
0.19034623 -0.10077212 2.4858174
0.25037533 -0.10060606 2.4817216
0.35001862 -0.10033062 2.4749269
0.43595207 -0.10009365 2.4690812
-1.0252171 -0.050276551 2.4266155
0.47463045 -0.050344467 2.4504979
-1.0255295 0.050296973 2.4273562
0.47438049 0.049868375 2.4490018
-1.0258367 0.15049373 2.4279001
0.474105 0.14994596 2.4481902
-1.0261494 0.2503022 2.4287326
0.47384897 0.25036347 2.4464641
-1.0264622 0.35018313 2.429564
0.47359076 0.35023031 2.4449267
-1.0267682 0.45011529 2.4301059
0.47331509 0.45042613 2.444108
-1.0270815 0.55011725 2.4309382
0.47307241 0.55050427 2.4418554
-1.0273914 0.64973259 2.4316707
0.47278935 0.65047091 2.4413927
-1.0276523 0.75213891 2.4299154
0.47240162 0.74825579 2.4457505
-1.0250465 0.85750312 2.4282932
-0.94884127 0.89583033 2.431242
-0.84921646 0.89611959 2.4319139
-0.75000578 0.89640903 2.4330168
-0.64939427 0.89670151 2.4338114
-0.54959452 0.89699185 2.4344928
-0.44787785 0.89728296 2.4329753
-0.34792069 0.89757222 2.4329424
-0.24994552 0.89786392 2.4368575
-0.15026319 0.89815372 2.4376457
-0.050214715 0.89844483 2.4384344
0.050236475 0.89873725 2.4392285
0.15010083 0.89902806 2.4400189
0.2500419 0.89931881 2.4408069
0.35004407 0.8996101 2.4416745
0.45158029 0.87778962 2.4444182
0.46598056 0.90001327 2.4749689
