# .PCD v0.7 - Point Cloud Data file format
VERSION 0.7
FIELDS x y z
SIZE 4 4 4
TYPE F F F
COUNT 1 1 1
WIDTH 435
HEIGHT 1
VIEWPOINT 0 0 0 1 0 0 0
POINTS 435
DATA ascii
-1.313172 -0.62966031 2.2991846
-1.2891419 -0.62877434 2.2997327
-1.3130974 -0.55092204 2.2990541
-1.2861278 -0.54865754 2.2996671
-1.3130034 -0.45147508 2.2988899
-1.2825787 -0.44983256 2.2995822
-1.3129076 -0.34997147 2.298722
-1.2788198 -0.34873462 2.2994988
-1.3128113 -0.24848239 2.2985535
-1.2750254 -0.24758463 2.2994158
-1.3127176 -0.14907894 2.2983894
-1.271258 -0.14809828 2.299335
-1.3126231 -0.049689814 2.2982235
-1.2675844 -0.048686858 2.2992525
-1.3125291 0.049685065 2.2980595
-1.2640089 0.050581705 2.2991679
-1.3124353 0.1490458 2.2978942
-1.2602683 0.14976063 2.2990866
-1.3123412 0.24839218 2.2977302
-1.2565055 0.24925584 2.2990053
-1.3122451 0.34979364 2.2975619
-1.2527478 0.35081211 2.2989209
-1.3121493 0.45118025 2.2973938
-1.2508163 0.45145565 2.2987967
-1.1990306 0.47053704 2.2999489
-1.3120557 0.55048352 2.2972295
-1.2507279 0.55081934 2.2986317
-1.1961368 0.55579525 2.2998719
-1.3119611 0.64977241 2.2970648
-1.2506338 0.65016913 2.2984674
-1.1923788 0.65328085 2.2997942
-1.3118676 0.74904692 2.296901
-1.2505436 0.74950391 2.2983024
-1.1886936 0.75251168 2.2997134
-1.3118979 0.84936136 2.2967317
-1.2504576 0.8488254 2.2981379
-1.1850487 0.85142672 2.2996287
-1.3115447 0.94649845 2.296576
-1.2503709 0.9460634 2.2979765
-1.1816441 0.94793361 2.2995462
-1.2380695 -0.63043803 2.300904
-1.1493355 -0.6306867 2.3029335
-1.0501528 -0.62972379 2.3052011
-0.95067787 -0.62929803 2.3074753
-0.84896314 -0.62840557 2.3098004
-0.74982005 -0.6290226 2.3120682
-0.6504817 -0.62964106 2.3143408
-0.5509482 -0.63026083 2.3166192
-0.45150882 -0.62897593 2.3188903
-0.35053706 -0.62790281 2.3211982
-0.25116706 -0.62793887 2.3234706
-0.15084592 -0.62855917 2.3257661
-0.0512578 -0.62816459 2.328043
0.050392475 -0.62770295 2.3303676
0.15131067 -0.62832534 2.3326766
0.25031972 -0.6289354 2.3349419
0.35028264 -0.62820303 2.3372271
0.45103317 -0.62595546 2.3395276
0.55062544 -0.6265651 2.3418062
0.65041298 -0.62717581 2.34409
0.75039434 -0.62778795 2.3463774
0.84955049 -0.62729043 2.3486443
0.95094222 -0.62689704 2.3509626
1.0503165 -0.62663221 2.353235
1.150131 -0.62598926 2.3555167
1.2510903 -0.62660331 2.3578262
1.330701 -0.6249606 2.3596447
-1.2351413 -0.55231076 2.3008401
-1.1487963 -0.55102408 2.3028121
-1.0511003 -0.54873866 2.3050432
-0.9499169 -0.54875433 2.3073568
-0.84891468 -0.54930365 2.3096673
-0.74977702 -0.54984301 2.3119359
-0.65044457 -0.55038381 2.3142092
-0.55091631 -0.55092549 2.3164854
-0.45119238 -0.55146813 2.3187673
-0.35171476 -0.55054575 2.3210409
-0.25099269 -0.54853749 2.3233414
-0.15083721 -0.54891056 2.3256328
-0.050323255 -0.54945344 2.3279326
0.050389633 -0.54999709 2.3302374
0.15130222 -0.55054229 2.3325458
0.25030565 -0.55107689 2.3348107
0.34897652 -0.55040258 2.3370662
0.45100877 -0.5500524 2.3393998
0.55109173 -0.54974318 2.3416877
0.65037626 -0.54901248 2.3439577
0.75035143 -0.54954833 2.3462443
0.85052371 -0.55008513 2.3485363
0.95089072 -0.55062294 2.3508339
1.0488145 -0.55033892 2.3530726
1.1500679 -0.54956752 2.3553867
1.2510214 -0.55010641 2.3576961
1.3306297 -0.55053157 2.3595183
-1.2312193 -0.45161766 2.3007603
-1.1496536 -0.44937527 2.3026221
-1.050643 -0.44849962 2.3048849
-0.94984925 -0.4489485 2.3071907
-0.84885353 -0.44939804 2.3095012
-0.7497232 -0.44983953 2.3117697
-0.65039778 -0.45028177 2.3140416
-0.55087638 -0.45072454 2.3163195
-0.45115963 -0.4511686 2.3185999
-0.3512463 -0.45161328 2.3208861
-0.25130072 -0.45014587 2.3231695
-0.15047841 -0.44873789 2.3254731
-0.050319638 -0.44875771 2.3277638
0.050385989 -0.4492017 2.3300679
0.15129125 -0.44964695 2.332376
0.2502875 -0.45008364 2.3346407
0.34947741 -0.45052114 2.3369105
0.45097637 -0.45096874 2.3392324
0.55006331 -0.45060116 2.3414979
0.65032959 -0.44973582 2.3437896
0.7502979 -0.4501746 2.3460765
0.85063207 -0.45043176 2.3483722
0.95082057 -0.44893679 2.3506608
1.0492355 -0.44936663 2.3529129
1.149985 -0.44980684 2.3552179
1.2509313 -0.45024785 2.3575275
1.3305342 -0.45059592 2.3593483
-1.2280428 -0.35001758 2.300662
-1.1491016 -0.34846672 2.3024652
-1.0505674 -0.34880805 2.3047192
-0.94978046 -0.34915704 2.3070254
-0.84879261 -0.34950688 2.309335
-0.74966931 -0.34985051 2.3116026
-0.65035087 -0.35019389 2.3138752
-0.55083728 -0.35053849 2.3161523
-0.45112705 -0.35088372 2.3184321
-0.35122037 -0.35122943 2.3207185
-0.25111714 -0.35157615 2.3230081
-0.15117233 -0.35027793 2.3252926
-0.050316043 -0.35017383 2.3275983
0.05046631 -0.3485052 2.3299005
0.15128015 -0.34876645 2.3322062
0.25026911 -0.34910503 2.3344705
0.34945208 -0.34944463 2.3367395
0.45094353 -0.34979165 2.3390625
0.55051565 -0.35013217 2.3413389
0.65028322 -0.35047373 2.3436224
0.75024378 -0.35081568 2.3459091
0.85023814 -0.35098788 2.3481958
0.95075285 -0.34938321 2.350492
1.04916 -0.34971815 2.3527427
1.1499023 -0.3500607 2.3550479
1.2508407 -0.35040376 2.3573577
1.3304378 -0.35067442 2.3591785
-1.2239445 -0.24968666 2.3005877
-1.149019 -0.2488873 2.3023002
-1.0504916 -0.24913107 2.304554
-0.94971138 -0.24938022 2.3068593
-0.84873122 -0.24962984 2.3091691
-0.74961495 -0.24987514 2.3114369
-0.65030408 -0.2501207 2.3137081
-0.55079663 -0.25036666 2.3159847
-0.45109457 -0.25061333 2.3182652
-0.35119525 -0.25086033 2.3205504
-0.25109911 -0.25110778 2.3228395
-0.15080483 -0.25135577 2.3251345
-0.050312474 -0.25160444 2.3274333
0.050291464 -0.24984501 2.3297307
0.15126944 -0.25000146 2.3320408
0.25025126 -0.25024426 2.3343041
0.34987637 -0.24985571 2.3365827
0.45091072 -0.24862903 2.338891
0.55047572 -0.24887101 2.3411691
0.65023559 -0.24911366 2.3434505
0.75018948 -0.24935673 2.3457379
0.85033965 -0.2496002 2.3480282
0.95068425 -0.24984424 2.3503227
1.0490847 -0.25008348 2.3525741
1.1498202 -0.25032854 2.3548784
1.2507508 -0.2505739 2.3571877
1.3303422 -0.25076747 2.3590083
-1.2202162 -0.15059766 2.3005075
-1.1489372 -0.14932196 2.3021345
-1.0522096 -0.14883034 2.315644
-0.94972104 -0.1769944 2.3109379
-0.84872007 -0.17713468 2.3126585
-0.74964029 -0.17726989 2.3143575
-0.65022528 -0.17733246 2.3161511
-0.54964823 -0.17667735 2.3212953
-0.45096436 -0.17599285 2.325604
-0.35110983 -0.17615917 2.3268001
-0.2511465 -0.17619568 2.3280272
-0.15075079 -0.17625324 2.329783
-0.050227549 -0.17646 2.331358
0.050279032 -0.1765995 2.3331308
0.15110488 -0.17666619 2.3350208
0.25015447 -0.17680101 2.336731
0.34845451 -0.17636107 2.3384745
0.46052215 -0.15860149 2.3422015
0.55043602 -0.14973401 2.3410022
0.65018928 -0.14987996 2.3432832
0.75013548 -0.15002614 2.3455701
0.85027832 -0.15017258 2.3478611
0.9506163 -0.15031943 2.3501549
1.0490094 -0.15046346 2.3524063
1.1497369 -0.15061077 2.3547099
1.2506609 -0.15075843 2.357017
1.3302467 -0.15087485 2.3588386
-1.216574 -0.051559951 2.3004239
-1.1488546 -0.049770847 2.3019688
-1.0542351 -0.049883764 2.3219795
0.47978848 -0.050343037 2.3457465
0.5503968 -0.050611101 2.3408344
0.65014279 -0.050660446 2.3431156
0.75008202 -0.050709866 2.3454018
0.85021734 -0.05075936 2.3476923
0.95054668 -0.050808977 2.3499868
1.0489342 -0.050857663 2.3522365
1.1496537 -0.050907459 2.3545406
1.2505715 -0.050957326 2.3568482
1.3301506 -0.050996702 2.3586698
-1.2137882 0.045727734 2.3003237
-1.1496458 0.050260738 2.301784
-1.0543084 0.049888607 2.3221524
0.47963843 0.050518103 2.34532
0.55035663 0.05060618 2.3406632
0.65009522 0.05065551 2.3429461
0.75002676 0.050704915 2.3452311
0.85015559 0.050754417 2.3475204
0.95047814 0.050804067 2.3498135
1.048857 0.050852653 2.3520651
1.1495702 0.050902501 2.3543677
1.2504793 0.050952349 2.3566761
1.3300533 0.050991684 2.3584952
-1.2113012 0.1464334 2.3002121
-1.1507392 0.14928561 2.3015928
-1.0545381 0.14932117 2.321861
0.4788762 0.15083213 2.3471715
0.55031717 0.14970063 2.3404968
0.65004897 0.14984639 2.3427768
0.74997324 0.14999256 2.3450618
0.8500945 0.15013903 2.3473513
0.95041084 0.15028583 2.3496466
1.0487818 0.15042961 2.3518956
1.1494874 0.15057696 2.3541989
1.2503895 0.1507245 2.3565063
1.3299577 0.15084089 2.3583255
-1.2077173 0.24294586 2.3001323
-1.1506559 0.24879181 2.3014271
-1.0551747 0.24932508 2.3195934
0.47824866 0.24897662 2.348712
0.55027807 0.24878059 2.3403296
0.65000212 0.24902299 2.3426094
0.74991983 0.24926586 2.3448946
0.8500334 0.24950936 2.3471844
0.95034206 0.24975307 2.3494775
1.0487065 0.24999212 2.3517263
1.1494048 0.25023696 2.3540294
1.2502987 0.2504822 2.3563366
1.329862 0.25067565 2.3581562
-1.2047522 0.32981348 2.3000541
-1.1509987 0.34887955 2.3012516
-1.0552701 0.34905851 2.3196099
0.47813326 0.34975547 2.3482835
0.55023766 0.3499541 2.3401585
0.64995474 0.3502951 2.3424389
0.74986511 0.35063696 2.344723
0.84997118 0.35097891 2.3470111
0.9497515 0.35033071 2.3492954
1.0493016 0.34998572 2.3515735
1.1499559 0.34944957 2.3538756
1.2502092 0.35022563 2.3561668
1.3297653 0.35049605 2.3579862
-1.148434 0.44972521 2.3011415
-1.0556457 0.44965091 2.3196387
0.47798502 0.45066673 2.3477211
0.55019796 0.45111293 2.3399873
0.64939708 0.45025301 2.342258
0.74981105 0.44988146 2.3445551
0.84991062 0.45032066 2.3468435
0.95072621 0.44972837 2.3491509
1.0506961 0.44908381 2.3514385
1.1513835 0.44952354 2.3537402
1.250119 0.44995448 2.355998
1.3296702 0.45030203 2.3578167
-1.1451352 0.55085897 2.3010473
-1.0553749 0.55064642 2.3196414
0.47784379 0.54979056 2.3474202
0.5501585 0.55015016 2.3398204
0.6503672 0.54934967 2.342114
0.74975747 0.54911202 2.3443871
0.84984952 0.54964805 2.3466756
0.95013529 0.55018508 2.3489671
1.0506196 0.55072314 2.3512652
1.1507757 0.55017591 2.3535581
1.2500296 0.54966968 2.3558283
1.3295758 0.55009371 2.3576465
-1.1412982 0.65028912 2.3009679
-1.0554595 0.65075916 2.3200538
0.4778007 0.64887303 2.3467908
0.55011892 0.64917308 2.3396533
0.64981449 0.64980555 2.341933
0.74970293 0.65043914 2.3442166
0.84970242 0.65098888 2.3465021
0.95006764 0.64959526 2.3487992
1.0505444 0.65023035 2.3510962
1.1517406 0.64974153 2.3534124
1.2499394 0.64936996 2.3556592
1.3294803 0.64987099 2.3574769
-1.1376493 0.7495116 2.3008842
-1.0555227 0.75046098 2.3202195
0.47770554 0.74984974 2.3463888
0.55007911 0.75028819 2.3394828
0.64976716 0.75101876 2.3417625
0.74940938 0.74992484 2.3440428
0.84981525 0.75028151 2.3463385
0.94999951 0.74899101 2.3486304
1.050469 0.74972266 2.3509283
1.1511331 0.75045711 2.3532283
1.2493337 0.7502715 2.3554759
1.3293824 0.74963415 2.3573077
-1.1339887 0.84885871 2.300802
-1.0482239 0.84887564 2.3149555
-0.9510712 0.86025488 2.3219655
-0.8507778 0.86103117 2.3211029
-0.74955648 0.86033577 2.3239758
-0.64987153 0.86104417 2.3257136
-0.55023205 0.86175442 2.3274081
-0.45053861 0.86242783 2.3292572
-0.35109052 0.86163348 2.3314917
-0.25067487 0.86189747 2.3335209
-0.1505197 0.86257517 2.3353157
-0.050212055 0.86326897 2.3370781
0.050071012 0.86381221 2.3389878
0.15077354 0.86280215 2.3414991
0.2499914 0.86318278 2.3435178
0.34936905 0.86415464 2.3450885
0.45403013 0.85651463 2.3444541
0.54960358 0.85076302 2.3393025
0.64972049 0.85011011 2.3415945
0.74982768 0.84909528 2.3438854
0.84966588 0.84965676 2.3461678
0.94993085 0.85048652 2.3484597
1.0498464 0.85027808 2.3507454
1.1510508 0.85003334 2.3530602
1.2502769 0.84990782 2.3553305
1.3292871 0.84938252 2.3571384
-1.1305145 0.94643295 2.3007174
-1.0495859 0.94795263 2.3025656
-0.95094949 0.94888073 2.3048203
-0.84951067 0.94881612 2.3071401
-0.74896795 0.94870251 2.3094397
-0.64974147 0.9496336 2.3117075
-0.55032039 0.95056695 2.3139811
-0.45070374 0.9515025 2.316257
-0.35062957 0.94877815 2.3185499
-0.25088185 0.94919997 2.3208315
-0.15067439 0.95013672 2.3231213
-0.050268874 0.95107484 2.3254158
0.050054863 0.95036513 2.3277109
0.15113872 0.94876248 2.3300259
0.25003508 0.94968271 2.3322873
0.34912473 0.95060527 2.3345504
0.44999769 0.95068896 2.3368587
0.55044252 0.94971222 2.3391564
0.64967453 0.94918674 2.3414268
0.74954081 0.95011151 2.343709
0.84936941 0.95078224 2.3459916
0.94986236 0.94985366 2.3482914
1.0508634 0.94970679 2.3506021
1.1509684 0.94959438 2.352891
1.2496681 0.95050514 2.3551478
1.3288763 0.95004523 2.3569596
-0.3487978 1.0004656 2.3185053
-0.25087231 1.0014316 2.3207436
-0.15066861 1.0024197 2.3230336
-0.050266977 1.00341 2.3253281
0.056421526 1.0027243 2.3277693
0.15113276 1.0032985 2.3299344
0.25002512 1.0042719 2.3321946
0.34911084 1.0052472 2.3344591
0.45560735 1.0052066 2.3368948
0.54997796 1.0051183 2.3390529
0.64964747 1.0060968 2.3413308
0.74950987 1.0070773 2.3436136
0.85135925 1.0077399 2.3459418
0.9498229 1.0069311 2.3481948
1.0502734 1.0079154 2.3504906
1.1509188 1.008902 2.3527908
1.2496144 1.0098687 2.3550465
1.3307474 1.009338 2.3569026
-1.0333142 -0.13314392 2.4284973
-0.9495312 -0.15897879 2.4174509
-0.84998685 -0.15869032 2.4130645
-0.74860173 -0.15839656 2.4085975
-0.64978206 -0.1581102 2.4042432
-0.55191994 -0.15776654 2.434248
-0.45009443 -0.15741657 2.461123
-0.34967485 -0.15712577 2.4565778
-0.24962834 -0.15683612 2.4520485
-0.1499473 -0.15654747 2.4475362
-0.050635219 -0.15625992 2.4430401
0.050508868 -0.15596719 2.4384637
0.15127565 -0.15567653 2.433919
0.2516678 -0.15538707 2.429394
0.35168725 -0.15509874 2.4248857
0.45856771 -0.13383266 2.4421489
-1.0356362 -0.050357938 2.4305458
0.46447173 -0.050201956 2.4435141
-1.0359567 0.05037871 2.4312978
0.46420196 0.05016312 2.4420948
-1.0362357 0.15092087 2.4302628
0.46384615 0.14729619 2.4448688
-1.0363407 0.24959509 2.4218683
0.463431 0.24991211 2.4495287
-1.0366611 0.34963164 2.4227059
0.46315652 0.35012439 2.4483378
-1.0369706 0.44972783 2.4230723
0.46289307 0.45020315 2.4466851
-1.0372977 0.54987299 2.4241943
0.4626244 0.55019403 2.4452646
-1.0376143 0.65009713 2.4248447
0.46235079 0.65003729 2.4440794
-1.0379294 0.74993306 2.4254904
0.46207884 0.75033355 2.4427669
-1.0302553 0.82902676 2.4281962
-0.94785821 0.84105253 2.4288466
-0.85007668 0.84133798 2.42591
-0.74981403 0.84163725 2.4267721
-0.64992344 0.84193492 2.4274089
-0.54996586 0.84223294 2.4281626
-0.44949543 0.84253317 2.4293563
-0.34741697 0.84284371 2.4337313
-0.2499415 0.84313905 2.4372623
-0.15008557 0.84343714 2.4381721
-0.050174907 0.84373498 2.4389856
0.050198644 0.84403437 2.4398506
0.15025087 0.84433275 2.4407618
0.25002059 0.84463054 2.4416189
0.35022196 0.84492928 2.4425321
0.44123673 0.83788925 2.4423189
