# .PCD v0.7 - Point Cloud Data file format
VERSION 0.7
FIELDS x y z
SIZE 4 4 4
TYPE F F F
COUNT 1 1 1
WIDTH 433
HEIGHT 1
VIEWPOINT 0 0 0 1 0 0 0
POINTS 433
DATA ascii
-1.3155438 -0.6225884 2.3103395
-1.2507218 -0.62178725 2.3117702
-1.1518581 -0.61985701 2.3139551
-1.0527058 -0.61792314 2.3161471
-0.95184487 -0.61559731 2.3183789
-0.84877616 -0.61254531 2.3206656
-0.75121737 -0.6097163 2.3228285
-0.65113848 -0.60767382 2.3250425
-0.55270773 -0.60550863 2.3272209
-0.45678481 -0.60379106 2.32934
-0.38008809 -0.60268289 2.3310325
-1.3156554 -0.54957563 2.3108225
-1.2498136 -0.54991937 2.312268
-1.1509078 -0.55043542 2.3144386
-1.0497483 -0.55096316 2.3166573
-0.94839573 -0.55149204 2.318881
-0.84921837 -0.55063009 2.3210666
-0.7492705 -0.54835194 2.3232796
-0.64942026 -0.54886961 2.3254709
-0.54938185 -0.54938734 2.3276687
-0.4491545 -0.54990655 2.3298652
-0.34873721 -0.55042696 2.3320687
-0.25052863 -0.54921371 2.334235
-0.15194999 -0.54699886 2.3364179
-0.05112977 -0.54489332 2.3386471
0.050405554 -0.54250181 2.3408945
0.1493887 -0.53882569 2.3430955
0.248887 -0.53666681 2.3452961
0.35043979 -0.53445601 2.3475437
0.45011711 -0.53254539 2.3497474
0.55006468 -0.53052557 2.3519576
0.65055889 -0.52846855 2.3541803
0.74870282 -0.52628613 2.3563519
0.84884375 -0.52414733 2.3585665
0.9499802 -0.52191782 2.3608038
1.0482838 -0.51807296 2.3629911
1.1474433 -0.51613748 2.3651831
1.2484502 -0.51377815 2.3674188
1.3340174 -0.51226145 2.3693094
-1.316029 -0.44978011 2.3114791
-1.2501686 -0.45006138 2.3129253
-1.1512352 -0.45048395 2.3150971
-1.0500469 -0.45091599 2.3173187
-0.94866616 -0.45134899 2.3195429
-0.84939307 -0.45152146 2.3217251
-0.74903864 -0.44948241 2.3239439
-0.64960611 -0.44844076 2.3261349
-0.54953927 -0.44886431 2.3283327
-0.44928285 -0.44928873 2.3305321
-0.34883729 -0.44971377 2.3327379
-0.25030035 -0.45013064 2.3348999
-0.15157922 -0.45054844 2.3370681
-0.050569009 -0.45097578 2.3392863
0.050281953 -0.45097834 2.3415017
0.14991333 -0.44971582 2.3437009
0.24937966 -0.45013478 2.3458838
0.35068327 -0.45080885 2.3481057
0.45026815 -0.44838303 2.3503113
0.54953426 -0.44973314 2.352483
0.64971077 -0.44925952 2.3546884
0.7495051 -0.45012066 2.3568761
0.85009247 -0.4505423 2.3590846
0.9506337 -0.45069671 2.3612931
1.0496892 -0.44925278 2.3634794
1.1486861 -0.4496659 2.365654
1.2500249 -0.45008871 2.3678772
1.3342524 -0.45044011 2.3697271
-1.3164032 -0.34992778 2.3121359
-1.2505246 -0.35014692 2.3135827
-1.1508569 -0.35002038 2.3157747
-1.0496749 -0.35126474 2.3179903
-0.94893658 -0.35114905 2.3202052
-0.84940594 -0.35147986 2.3223901
-0.75012583 -0.35121757 2.324573
-0.64978826 -0.35004923 2.3267906
-0.54930025 -0.34879202 2.3290052
-0.44941202 -0.34861255 2.3312027
-0.3489373 -0.34894297 2.3334067
-0.2500999 -0.3490288 2.3355796
-0.15136954 -0.34982285 2.3377438
-0.050583586 -0.34992248 2.3399591
0.050647642 -0.35025465 2.3421812
0.14995568 -0.35058081 2.3443615
0.24945004 -0.35090742 2.3465459
0.34896672 -0.35105744 2.3487327
0.44899791 -0.34944764 2.3509417
0.54905009 -0.34977382 2.3531387
0.64929068 -0.35010114 2.3553398
0.74971747 -0.35042897 2.3575451
0.85033447 -0.35075718 2.3597546
0.95154333 -0.3494989 2.3619871
1.049987 -0.34928089 2.3641522
1.1490129 -0.34960219 2.3663275
1.2490504 -0.35043997 2.36852
1.3332523 -0.34943205 2.3703771
-1.3167773 -0.25001875 2.3127925
-1.2508798 -0.25017536 2.3142409
-1.1498252 -0.25041515 2.3164604
-1.0485781 -0.25065562 2.3186836
-0.94920731 -0.25089148 2.3208668
-0.84964931 -0.25112796 2.3230524
-0.74990392 -0.25136471 2.3252444
-0.64997 -0.25160205 2.3274422
-0.55025399 -0.2502827 2.3296416
-0.44953802 -0.2499788 2.3318558
-0.34903535 -0.25021559 2.3340628
-0.24786259 -0.24973226 2.3362896
-0.14956334 -0.24857983 2.3384578
-0.050598104 -0.24881093 2.3406308
0.050662205 -0.24904741 2.3428547
0.14999887 -0.24927932 2.3450375
0.24952215 -0.24951161 2.3472228
0.34922963 -0.24974439 2.3494124
0.44912475 -0.24997775 2.3516064
0.54920548 -0.25021142 2.353806
0.64947486 -0.25044534 2.3560078
0.74993026 -0.25068006 2.3582139
0.85040343 -0.2510775 2.36042
0.95081323 -0.24942622 2.3626375
1.0502859 -0.24925253 2.3648252
1.1493406 -0.24948198 2.3670011
1.2485772 -0.24971159 2.3691807
1.3328515 -0.24990673 2.3710313
-1.3171521 -0.15005296 2.3134506
-1.2512367 -0.1501469 2.3148992
-1.1501532 -0.15029103 2.3171201
-1.0488763 -0.15043534 2.3193457
-0.95532715 -0.15678985 2.3267536
-0.84955275 -0.16173197 2.3247294
-0.74975419 -0.15952517 2.3268976
-0.64965385 -0.1573088 2.3290756
-0.54948473 -0.15517631 2.3311162
-0.44916803 -0.15304236 2.3331833
-0.34882993 -0.15099758 2.3353071
-0.24888581 -0.15089338 2.336926
-0.14960548 -0.14961056 2.3391154
-0.050612349 -0.14974967 2.3412917
0.050676465 -0.14989203 2.3435161
0.15004121 -0.15003164 2.3456988
0.24959257 -0.15017161 2.3478858
0.34932849 -0.15031166 2.3500774
0.4492521 -0.15045214 2.3522725
0.54936123 -0.15059276 2.3544722
0.64965838 -0.15073368 2.3566756
0.75014311 -0.15087494 2.3588831
0.84912241 -0.15034719 2.3610623
0.94953752 -0.14902671 2.3632784
1.0505852 -0.14916681 2.3654983
1.149668 -0.14930409 2.3676753
1.2489331 -0.14944161 2.3698559
1.3332318 -0.14955834 2.3717082
-1.3175259 -0.05003031 2.3141108
-1.2502871 -0.049585614 2.3155901
-1.1492081 -0.050591826 2.3178053
-1.0491757 -0.050157811 2.3200068
-0.99323529 -0.051093288 2.3520761
-0.30580819 -0.09981145 2.3573489
-0.24072176 -0.098111719 2.3468435
-0.14501953 -0.095909111 2.3441777
-0.047252554 -0.093678676 2.3450232
0.053141657 -0.091477528 2.346132
0.15179515 -0.089301623 2.3477137
0.25080496 -0.087089144 2.3497074
0.35002646 -0.0848938 2.3515756
0.44969654 -0.082759254 2.3534729
0.5487923 -0.050451972 2.3568621
0.6498428 -0.050965033 2.3573446
0.75035608 -0.051012754 2.3595536
0.84847468 -0.050430804 2.3617136
0.94980764 -0.048978411 2.3639512
1.050884 -0.049024455 2.3661716
1.1499953 -0.049069531 2.3683498
1.2492895 -0.049114779 2.3705325
1.3336126 -0.049153171 2.3723853
-1.3179015 0.050049275 2.314769
-1.249886 0.050081626 2.3162632
-1.148743 0.050129697 2.3184862
-1.0492195 0.050412364 2.321049
-0.99728227 0.048313662 2.3556471
0.54708594 0.051337808 2.3579283
0.65003133 0.050984692 2.3580277
0.75057375 0.051032469 2.3602371
0.84898633 0.049142916 2.3623877
0.95007223 0.048996579 2.3646097
1.0511776 0.049042646 2.3668318
1.1503166 0.049087837 2.3690116
1.2496384 0.049133051 2.3711951
1.3339853 0.049171463 2.3730488
-1.3182756 0.15018585 2.3154266
-1.2502421 0.1502828 2.3169239
-1.1490706 0.15042712 2.3191478
-1.040104 0.15130717 2.3301492
-0.99961299 0.10934023 2.3418458
0.49874243 0.17185512 2.376709
0.54788268 0.14958607 2.3572607
0.65021563 0.15086742 2.3586974
0.75078696 0.1510089 2.360908
0.8495611 0.14919633 2.3630672
0.9503426 0.14915812 2.3652823
1.0514766 0.14929838 2.3675065
1.1506443 0.14943576 2.3696859
1.2499951 0.14957353 2.3718705
1.3343657 0.14969052 2.3737266
-1.3169856 0.25132355 2.3161285
-1.2489777 0.25020358 2.3176165
-1.1493983 0.25078189 2.3198078
-1.0417038 0.25063515 2.3313098
0.4960382 0.25335166 2.3703396
0.54998797 0.25057262 2.3571579
0.65040052 0.25080734 2.3593667
0.75048125 0.24986003 2.3615603
0.84963787 0.24914216 2.3637345
0.94884884 0.24906798 2.3659146
1.0499853 0.24990262 2.3681426
1.150973 0.24984063 2.3703632
1.2503513 0.25007117 2.3725486
1.3347476 0.25026676 2.3744049
-1.3169653 0.35063675 2.3167911
-1.2488906 0.35086372 2.3182893
-1.1497256 0.35119393 2.3204708
-1.044489 0.35104209 2.331923
0.49311221 0.35249057 2.3673203
0.55014378 0.3504751 2.3578269
0.65058547 0.35080335 2.3600364
0.75172544 0.34990802 2.3622539
0.84987956 0.34932336 2.3644075
0.94873303 0.34964493 2.3665829
1.0499222 0.34997377 2.368809
1.1513013 0.35030329 2.3710389
1.2505432 0.35044703 2.3732212
1.3351201 0.34875894 2.3750682
-1.3173407 0.45094645 2.3174512
-1.2492467 0.4512383 2.3189485
-1.1502806 0.45140979 2.3211246
-1.0467101 0.4498418 2.3331153
0.49061942 0.45177993 2.3653939
0.55030024 0.45043489 2.3584967
0.64949816 0.45004293 2.3606739
0.7503767 0.44966519 2.3628891
0.85012192 0.44956154 2.3650796
0.94900233 0.44997525 2.3672557
1.0502216 0.45039868 2.3694837
1.1516293 0.4508228 2.3717155
1.2512363 0.45104599 2.3739064
1.335503 0.44944918 2.3757482
-1.3177155 0.55131316 2.3181088
-1.2498907 0.55133176 2.3196023
-1.15014 0.54982352 2.321784
-1.0497725 0.54857594 2.3335884
0.48795986 0.55106741 2.3649662
0.55045629 0.55045098 2.3591661
0.649055 0.5506689 2.3613348
0.74949288 0.54934096 2.363533
0.85036391 0.5498569 2.3657539
0.94927335 0.550363 2.3679304
1.0480481 0.54941881 2.3700948
1.149973 0.54941285 2.3723361
1.2514153 0.5497663 2.3745682
1.3358841 0.55019701 2.3764274
-1.3180915 0.65173751 2.3187704
-1.2496537 0.64970505 2.3202622
-1.150697 0.64858127 2.3224299
-1.0523845 0.64891022 2.3344872
0.48578265 0.65089881 2.3640988
0.55061263 0.65052432 2.3598354
0.64858723 0.64956069 2.3619823
0.74970609 0.64959884 2.3642058
0.85060644 0.65020955 2.3664279
0.94954294 0.65080798 2.3686063
1.0491598 0.65008658 2.3707902
1.1500337 0.6497938 2.3730061
1.2513781 0.65022111 2.3752356
1.3362583 0.64885712 2.3770924
-1.3184593 0.75012481 2.319418
-1.2503018 0.74851483 2.3209054
-1.1510251 0.74922001 2.323092
-1.0551093 0.74942458 2.3354604
0.48324379 0.75053895 2.3640471
0.55076855 0.75065434 2.3605061
0.64958018 0.74975199 2.3626716
0.74991953 0.74991471 2.3648784
0.85054904 0.75025725 2.3670924
0.9498086 0.74917138 2.3692653
1.048956 0.74986202 2.3714509
1.1482867 0.75055319 2.3736384
1.250277 0.75089282 2.3758824
1.336641 0.74971944 2.3777728
-1.3188273 0.84856695 2.3200641
-1.2506579 0.8491165 2.3215687
-1.1513542 0.8499167 2.3237562
-1.0515497 0.85265416 2.3354988
-0.95118505 0.87896454 2.3453684
-0.85050297 0.88121992 2.3493795
-0.75011528 0.88467854 2.3519647
-0.65101075 0.88806868 2.3552477
-0.55182654 0.89167762 2.3584542
-0.45329139 0.89511555 2.3634944
-0.36679402 0.89838654 2.3703609
0.48103562 0.8506583 2.3640287
0.55045223 0.85011554 2.3611619
0.64936405 0.84948814 2.3633311
0.75013322 0.85028607 2.3655515
0.85139644 0.85070318 2.3677797
0.95007944 0.84972984 2.3699434
1.0488509 0.84996843 2.3721151
1.1486083 0.84915346 2.3743024
1.2483453 0.84976971 2.3764997
1.3350335 0.85085464 2.3784108
-1.3192037 0.94916052 2.3207271
-1.2510141 0.94977504 2.3222282
-1.1514153 0.95090169 2.3244245
-1.0503738 0.9504503 2.3266442
-0.94777149 0.94950646 2.3288927
-0.84838408 0.94919324 2.331075
-0.74829233 0.95009148 2.3332827
-0.65010285 0.95097274 2.3354468
-0.55181366 0.94983417 2.3376005
-0.45054892 0.94974703 2.3398237
-0.34809822 0.94641846 2.3440161
-0.2493936 0.94375718 2.3492279
-0.15058625 0.94571376 2.3513477
-0.050844159 0.94802332 2.3532472
0.050316922 0.95113868 2.3553283
0.14995547 0.95396531 2.3575044
0.24986842 0.95730531 2.3594019
0.34979019 0.95825702 2.3617282
0.4535625 0.95499319 2.3629842
0.55155849 0.95032585 2.3618534
0.64954841 0.94982326 2.3640039
0.74983406 0.94993073 2.366209
0.85132796 0.9494704 2.3684363
0.95035052 0.9503454 2.3706193
1.0499651 0.95064813 2.3728106
1.1489365 0.94995469 2.3749809
1.2480892 0.94925916 2.3771551
1.3352284 0.94944757 2.3790722
-1.3193994 1.0015734 2.3210723
-1.2512006 1.0022222 2.3225753
-1.1497818 1.0031868 2.3248115
-1.0396837 1.0029123 2.3272288
-0.94843322 1.0029978 2.3292348
-0.84851557 1.0039459 2.3314373
-0.74840856 1.0048963 2.3336444
-0.650204 1.0058285 2.3358092
-0.55113399 1.0047159 2.3379788
-0.45114332 1.0056037 2.3401828
-0.35028297 1.0065589 2.3424063
-0.24923076 1.0075161 2.3446336
-0.14661416 1.0073216 2.3468876
-0.050778855 1.0072738 2.3489943
0.050843392 1.0082341 2.3512337
0.15053584 1.0091765 2.353431
0.25041613 1.0101205 2.3556325
0.3508912 1.0090148 2.3578336
0.45073423 1.0098817 2.3600342
0.5511753 1.0108291 2.362247
0.64966267 1.0117581 2.364419
0.75272387 1.011835 2.3666849
0.85147822 1.0115216 2.3688529
0.95051765 1.0124537 2.3710361
1.0497398 1.0133877 2.3732226
1.1491457 1.0143232 2.3754141
1.2501546 1.0136247 2.3776298
1.3354728 1.0139273 2.3795068
-0.97988343 -0.11896161 2.4344451
-0.84578967 -0.12520261 2.4382594
-0.74842829 -0.12069443 2.435936
-0.65747416 -0.1165204 2.4404364
-0.56322235 -0.11217517 2.4415631
-0.4612813 -0.10747392 2.4425087
-0.36113802 -0.10286864 2.4457622
-0.99432278 -0.050931767 2.4355674
-0.25716424 -0.098060049 2.4443223
-0.15717284 -0.09344878 2.4453168
-0.056176964 -0.088795975 2.4471605
0.049768232 -0.083904438 2.4472594
0.15125288 -0.079222009 2.4479973
0.25590163 -0.074383833 2.4470463
0.36287108 -0.069448337 2.4478753
0.46560308 -0.064686731 2.4449086
0.50633878 -0.032525178 2.4510894
-1.0007855 0.086028673 2.4425728
-0.99832219 0.037134953 2.4330735
0.49986196 0.096087307 2.4808331
0.50277019 0.048920147 2.4478917
-1.0035399 0.14926375 2.4355156
0.49774873 0.15537702 2.4532249
0.50050306 0.11234206 2.4186676
-1.0081129 0.24827871 2.4361436
0.49348226 0.25007671 2.4490149
-1.012705 0.34801021 2.4361267
0.48888609 0.35009259 2.4485922
-1.0173429 0.44869778 2.4361837
0.48427337 0.4500891 2.4489596
-1.0219934 0.54931402 2.4369462
0.47967839 0.55007547 2.4485552
-1.0266176 0.64985502 2.4366965
0.47507066 0.65005648 2.4487307
-1.0312394 0.74986792 2.4374115
0.470451 0.75042999 2.4486234
-1.0292073 0.8460843 2.4387238
-0.94896507 0.87111926 2.438365
-0.84981644 0.87569171 2.4393649
-0.749663 0.88030952 2.4405568
-0.65025836 0.88489246 2.4417894
-0.55053079 0.88949031 2.4430268
-0.45015824 0.89411759 2.4443407
-0.3602438 0.8982628 2.4455202
0.46582082 0.85080403 2.448993
-0.3113203 0.9005233 2.4452434
-0.24977662 0.90336096 2.44592
-0.15032053 0.90794909 2.4468479
-0.050639052 0.91254568 2.4478552
0.049366564 0.91715801 2.4488511
0.1496899 0.92179078 2.4487808
0.24984683 0.92641455 2.4490426
0.34976724 0.93102807 2.4491227
0.43858331 0.93066746 2.4500329
0.45768726 -0.065383896 2.5027308
0.50266874 0.024791976 2.5021794
0.49820086 0.12172746 2.5023816
0.49382377 0.21646579 2.5030482
0.48848003 0.33209881 2.5039155
0.4837411 0.43527254 2.5033877
0.47878787 0.54253888 2.5040219
0.47399765 0.64648169 2.5042064
0.46927017 0.74906081 2.504395
0.46440113 0.85475463 2.5044982
0.047302697 0.91677135 2.5003912
0.15323682 0.92165679 2.5014236
0.26383063 0.92675418 2.5030186
0.36996907 0.93164909 2.5040536
0.44675961 0.92689991 2.5021942
