# .PCD v0.7 - Point Cloud Data file format
VERSION 0.7
FIELDS x y z
SIZE 4 4 4
TYPE F F F
COUNT 1 1 1
WIDTH 494
HEIGHT 1
VIEWPOINT 0 0 0 1 0 0 0
POINTS 494
DATA ascii
-1.3102093 -0.81913894 2.2903838
-1.2492975 -0.8176589 2.2917597
-1.1481937 -0.81800532 2.2940536
-1.050848 -0.81710255 2.2962584
-0.95127016 -0.81619972 2.2985134
-0.89204741 -0.81515872 2.2998531
-1.3100628 -0.75096679 2.2901275
-1.2500453 -0.75160134 2.2914922
-1.1505815 -0.74930245 2.2937405
-1.0507301 -0.74875617 2.2960026
-0.95032173 -0.74949938 2.2982824
-0.88618201 -0.74426979 2.2997167
-1.3098465 -0.64976811 2.2897501
-1.2509669 -0.64989811 2.2910857
-1.1507516 -0.64872456 2.2933545
-1.050559 -0.64936823 2.2956295
-0.95016736 -0.65001291 2.2979093
-0.87803108 -0.64705378 2.2995338
-1.3096302 -0.54860228 2.2893724
-1.2505449 -0.54892379 2.2907131
-1.1505651 -0.5494675 2.2929828
-1.0503891 -0.55001241 2.2952566
-0.95001292 -0.55055845 2.2975349
-0.86976206 -0.54855102 2.2993476
-1.309418 -0.44953385 2.2890003
-1.2503424 -0.44979742 2.2903416
-1.1503786 -0.45024297 2.2926106
-1.050218 -0.45068911 2.2948835
-0.94985831 -0.45113662 2.2971623
-0.86145413 -0.44962978 2.2991614
-1.309206 -0.35049734 2.2886293
-1.2501394 -0.35070276 2.2899709
-1.1501926 -0.35105008 2.2922394
-1.0550482 -0.35925344 2.2945099
-0.94972986 -0.36830866 2.2968514
-0.85375959 -0.36668012 2.2990301
-1.3089935 -0.25149313 2.2882602
-1.2496082 -0.2499938 2.2896013
-1.1500019 -0.24982423 2.2918594
-1.0788162 -0.24985561 2.2939835
-1.3087776 -0.15045938 2.2878828
-1.25006 -0.14892784 2.2892075
-1.1498116 -0.14863162 2.291481
-1.0798253 -0.14985321 2.2932694
-1.3085613 -0.049458783 2.2875028
-1.2495235 -0.049487744 2.2888422
-1.1496253 -0.049536731 2.2911098
-1.0801997 -0.049570773 2.2926836
-1.3083495 0.049448118 2.287133
-1.2493213 0.049477078 2.2884727
-1.1494389 0.049526047 2.2907369
-1.0800483 0.049561713 2.2923639
-1.3090838 0.14751211 2.2867467
-1.2504091 0.15075201 2.2880642
-1.1492521 0.14855666 2.2903657
-1.0799488 0.14867327 2.2921553
-1.3099512 0.25127861 2.2863333
-1.2507211 0.2511698 2.2876759
-1.1490623 0.24961723 2.2899878
-1.0798488 0.24983138 2.2919455
-1.3097394 0.35008621 2.2859607
-1.2507408 0.35029089 2.2873008
-1.1509131 0.35063744 2.2895629
-1.0817655 0.35095543 2.2916353
-1.309527 0.44886187 2.2855918
-1.2505389 0.44912416 2.2869301
-1.1507262 0.44956869 2.2891912
-1.0816597 0.45000553 2.2914124
-1.3093114 0.54966241 2.2852168
-1.2503325 0.54998398 2.2865524
-1.1510328 0.54960144 2.288806
-1.0815542 0.54903638 2.2911918
-1.3090953 0.65042979 2.2848406
-1.2501255 0.65081018 2.286175
-1.1498513 0.65049136 2.2884498
-1.0632321 0.66163486 2.2906928
-0.95113248 0.68209702 2.2928376
-0.84977591 0.68230855 2.2951353
-0.74920684 0.68298584 2.2974136
-0.66745532 0.6837334 2.2992649
-1.3088837 0.74910825 2.2844691
-1.2499236 0.74954659 2.2858052
-1.15016 0.75028706 2.288065
-1.0501969 0.75102943 2.2903287
-0.94971341 0.75012928 2.2926111
-0.85020494 0.74939841 2.2948709
-0.74912572 0.74913174 2.2971647
-0.66160727 0.75145668 2.2991402
-1.308668 0.84980959 2.2840908
-1.2499338 0.85006636 2.2854221
-1.1499734 0.84908897 2.2876945
-1.0500269 0.84992892 2.2899568
-0.94988263 0.85077071 2.2922261
-0.84902 0.85052389 2.2945142
-0.74950129 0.84946293 2.2967756
-0.65329188 0.85050744 2.2989538
-1.308465 0.94431561 2.2837377
-1.2492701 0.94461298 2.2850814
-1.1497955 0.943744 2.2873411
-1.0498636 0.94467771 2.289603
-0.94973582 0.94561344 2.2918692
-0.84940773 0.94655085 2.2941418
-0.74833882 0.94652522 2.2964332
-0.65021622 0.9463439 2.2986593
-0.59477389 0.95883024 2.299871
-0.84289515 -0.81689638 2.3009741
-0.75104767 -0.81744784 2.3030598
-0.65156406 -0.81689727 2.3053141
-0.54856306 -0.81499308 2.3076427
-0.4494656 -0.8157115 2.3098924
-0.35158232 -0.81543624 2.3121119
-0.25018781 -0.81522197 2.3144109
-0.15025657 -0.81602144 2.3166802
-0.050129425 -0.81473005 2.3189461
0.050194547 -0.81343699 2.3212166
0.15071529 -0.81423724 2.3234997
0.25040907 -0.81472343 2.3257625
0.35024479 -0.81372499 2.3280227
0.45076671 -0.81393403 2.3303032
0.5505541 -0.81321096 2.3325639
0.64960688 -0.81199515 2.3348062
0.74952489 -0.81267798 2.3370745
0.84929997 -0.81346595 2.3393402
0.94727296 -0.8128258 2.3415601
1.0506357 -0.8111428 2.3438981
1.1497838 -0.81160617 2.3461485
1.2481595 -0.81155139 2.3483794
1.3274776 -0.81088221 2.3501756
-0.8375594 -0.75223666 2.3008497
-0.75096583 -0.75097555 2.3028097
-0.64967394 -0.75138104 2.3051081
-0.54883444 -0.74840003 2.307384
-0.44941664 -0.74904275 2.3096411
-0.34988663 -0.74977559 2.3119018
-0.25016129 -0.75051028 2.3141661
-0.15024078 -0.75124568 2.3164353
-0.050461244 -0.75051308 2.3186951
0.050189245 -0.7485345 2.3209701
0.15069932 -0.74927127 2.3232527
0.25140744 -0.75000834 2.3255394
0.35020876 -0.750732 2.3277826
0.44880253 -0.75094563 2.3300195
0.55049747 -0.75009495 2.3323231
0.65003616 -0.74889314 2.3345759
0.749448 -0.74944067 2.3368335
0.84921193 -0.75016838 2.3390989
0.9491716 -0.75089413 2.3413687
1.0490162 -0.74988878 2.3436286
1.1496685 -0.75023872 2.3459129
1.2506473 -0.74947971 2.3482006
1.3273445 -0.74941015 2.3499398
-0.82925224 -0.65323389 2.300663
-0.7508437 -0.65129292 2.3024347
-0.64960992 -0.65060294 2.304728
-0.54866272 -0.64843065 2.3070087
-0.44934309 -0.6490643 2.3092642
-0.34982949 -0.64969975 2.3115239
-0.25012046 -0.65033561 2.3137872
-0.15021616 -0.65097296 2.3160553
-0.050275788 -0.65144336 2.3183236
0.050684415 -0.64935642 2.320606
0.15067449 -0.64870375 2.322871
0.25136605 -0.64934206 2.3251576
0.35015109 -0.64996827 2.3274002
0.44912842 -0.65059608 2.3296475
0.5504083 -0.6512382 2.3319459
0.64960194 -0.64995217 2.334192
0.74968702 -0.64994037 2.3364613
0.84907144 -0.64891362 2.3387115
0.94901413 -0.64954334 2.3409805
1.0491506 -0.65017426 2.3432541
1.1494803 -0.65080619 2.3455319
1.2495569 -0.64998281 2.3477983
1.327129 -0.64980632 2.3495567
-0.82098538 -0.55468255 2.300477
-0.75072211 -0.5516426 2.3020589
-0.65027112 -0.54913449 2.3043272
-0.54857326 -0.54858279 2.3066328
-0.44926965 -0.54911864 2.3088865
-0.34977201 -0.54965609 2.3111448
-0.2500796 -0.55019414 2.3134084
-0.15019156 -0.55073345 2.3156762
-0.050107483 -0.55127352 2.3179474
0.04967501 -0.5510484 2.3202107
0.15118493 -0.5491966 2.322505
0.25132456 -0.54870874 2.3247752
0.35009339 -0.54923791 2.3270168
0.4490543 -0.54976821 2.3292637
0.55031782 -0.55031097 2.3315618
0.6496644 -0.55084264 2.333817
0.74885148 -0.55095011 2.3360662
0.8510589 -0.54981345 2.3383806
0.95098799 -0.55034691 2.3406491
1.0492094 -0.54902405 2.3428717
1.1492897 -0.54929078 2.3451424
1.2497996 -0.54982501 2.347424
1.3269119 -0.55023545 2.3491755
-0.81283927 -0.45744959 2.3002939
-0.75038069 -0.45020095 2.3016825
-0.64963871 -0.44832063 2.3039601
-0.54848313 -0.44876733 2.3062561
-0.4491964 -0.44920576 2.3085093
-0.34971482 -0.44964531 2.3107677
-0.2500385 -0.45008531 2.3130295
-0.1501669 -0.45052645 2.3152969
-0.050099254 -0.45096841 2.3175676
0.05016486 -0.45141131 2.3198438
0.15009096 -0.45082781 2.3221073
0.25173083 -0.44957602 2.3244076
0.35003591 -0.44854063 2.3266342
0.44898039 -0.44897351 2.3288794
0.55022669 -0.44941649 2.3311775
0.64955688 -0.44985104 2.3334317
0.74908054 -0.4502866 2.3356905
0.85092086 -0.45073235 2.3380017
0.95083398 -0.45116949 2.3402705
1.0497916 -0.44926539 2.3425066
1.1502893 -0.45043787 2.3447907
1.2495965 -0.45036075 2.3470426
1.3266965 -0.45069641 2.3487926
-1.0500995 -0.32433259 2.350471
-0.94983059 -0.33386478 2.3454301
-0.83653247 -0.34774432 2.3320844
-0.75067139 -0.36014849 2.3093896
-0.64960766 -0.36041141 2.310503
-0.54871267 -0.36035103 2.3122656
-0.44932255 -0.36064199 2.3135734
-0.34913614 -0.35972086 2.3179843
-0.24991018 -0.35964537 2.3204207
-0.15018405 -0.3598201 2.3218915
-0.050125089 -0.35999116 2.3234005
0.050166372 -0.36022496 2.324827
0.15057945 -0.36046177 2.326333
0.25061068 -0.36014438 2.3279614
0.35007384 -0.35871139 2.3300021
0.45117515 -0.35119694 2.3307643
0.55013597 -0.34855568 2.3307927
0.64944994 -0.34889263 2.333046
0.74895728 -0.34923014 2.3353047
0.85078037 -0.34957588 2.3376153
0.95067596 -0.34991488 2.3398829
1.0507681 -0.35025445 2.3421545
1.1510534 -0.35059509 2.3444293
1.2493941 -0.35092875 2.3466604
1.3264812 -0.35119006 2.3484111
-1.0637205 -0.24982229 2.3521402
0.46232465 -0.25060838 2.3342578
0.55004764 -0.2498282 2.3304164
0.6493448 -0.25006965 2.3326693
0.74883574 -0.25031155 2.3349266
0.85117757 -0.24939726 2.3372443
0.95051897 -0.24869385 2.3394957
1.050594 -0.24893533 2.3417654
1.1508611 -0.24917713 2.3440409
1.2491859 -0.24941428 2.3462715
1.3262604 -0.24960011 2.3480201
-1.0641737 -0.14885685 2.3498132
0.46254978 -0.15089601 2.3335586
0.54995847 -0.15113267 2.3300405
0.65023077 -0.15074614 2.3323126
0.74966383 -0.15195864 2.3345726
0.84996343 -0.15045553 2.3368421
0.95036501 -0.14961407 2.3391154
1.0504234 -0.14975925 2.3413863
1.1506745 -0.14990477 2.3436601
1.248983 -0.15004727 2.3458912
1.3260449 -0.15015915 2.3476381
-1.0646226 -0.050997686 2.3480291
0.46172038 -0.049674198 2.3343186
0.54986781 -0.050370187 2.3296556
0.6512478 -0.050419919 2.3319559
0.7507087 -0.050468698 2.3342118
0.85036427 -0.050517585 2.3364725
0.95021081 -0.050566509 2.338737
1.0502534 -0.050615583 2.341006
1.1504875 -0.050664749 2.3432794
1.2487807 -0.05071298 2.3455093
1.3258293 -0.05075074 2.3472567
-1.0650762 0.050095629 2.3457098
0.46079323 0.05027248 2.335412
0.54977745 0.050359137 2.3292723
0.65114069 0.050408822 2.3315718
0.75058472 0.050457612 2.3338261
0.85022348 0.050506476 2.3360865
0.95005357 0.050555393 2.3383498
1.0500789 0.050604422 2.3406184
1.1502972 0.050653577 2.3428912
1.2505407 0.050864711 2.3451645
1.3275585 0.050419774 2.3469124
-1.0656077 0.1501189 2.3470585
0.46063879 0.15076612 2.334651
0.54968649 0.15105519 2.3288884
0.65103292 0.15120429 2.3311865
0.7504608 0.15135063 2.333441
0.85008299 0.1514971 2.3357
0.94965988 0.14982276 2.3379645
1.0499091 0.1496833 2.3402395
1.1501108 0.14982861 2.3425105
1.2505096 0.14997427 2.3447876
1.3275342 0.15008596 2.3465338
-1.0661341 0.25003746 2.3482189
0.46048367 0.25119314 2.3339384
0.54915553 0.25112367 2.3284972
0.65092736 0.24986778 2.3308101
0.75033981 0.25010943 2.3330643
0.8499459 0.25035152 2.3353217
0.94997787 0.24875404 2.3375967
1.0497384 0.24872997 2.3398597
1.1499245 0.24897133 2.3421309
1.2503051 0.24921319 2.3444064
1.3273189 0.24939892 2.3461528
-1.0666574 0.3498421 2.3492689
0.46003449 0.35000128 2.3333135
0.54995698 0.34962359 2.3281426
0.65082252 0.34849933 2.3304343
0.75021839 0.3488363 2.3326869
0.84980822 0.34917364 2.3349442
0.94958907 0.34951168 2.3372056
1.049565 0.34985116 2.3394725
1.1497338 0.35019055 2.341743
1.2500991 0.35053036 2.344018
1.3270984 0.35079157 2.3457632
-1.067183 0.44974446 2.3504088
0.4602426 0.44862649 2.3321745
0.54941881 0.44875398 2.3277543
0.65071541 0.44919634 2.3300502
0.75009471 0.44963062 2.3323021
0.84966785 0.45006567 2.334559
0.94943202 0.45050144 2.3368196
1.0493913 0.45093837 2.3390851
1.1492482 0.45102063 2.3413494
1.2498956 0.44970465 2.3436377
1.3268821 0.45003948 2.3453825
-1.067714 0.54996258 2.3516977
0.45991766 0.54897678 2.3316433
0.54932821 0.54931879 2.3273706
0.650608 0.54986054 2.3296657
0.74997073 0.55039191 2.331917
0.84952754 0.5509243 2.334173
0.94898105 0.55110306 2.3364282
1.0492208 0.54988748 2.338706
1.1496623 0.55004269 2.3409839
1.2496915 0.54884642 2.3432565
1.3266673 0.54925495 2.345001
-1.0538813 0.64692116 2.3494332
-0.95014304 0.66616058 2.3472781
-0.84987253 0.66666257 2.3495884
-0.74946213 0.66716075 2.3507171
-0.64051771 0.67218357 2.3377147
-0.54961067 0.67760408 2.3207698
-0.44904938 0.67804551 2.3230977
-0.35014886 0.67733645 2.3262978
-0.24978963 0.67756307 2.3288038
-0.14987157 0.67815423 2.330734
-0.049945939 0.67877191 2.3325644
0.050003972 0.67936444 2.3345947
0.15011737 0.67995858 2.3368237
0.24894178 0.67945439 2.3387454
0.35086137 0.68010843 2.3371766
0.45417616 0.65281689 2.3309174
0.54923832 0.64985073 2.3269873
0.65050071 0.65049118 2.3292816
0.74984711 0.65111965 2.3315327
0.84886032 0.65054291 2.3337803
0.94942522 0.64990163 2.3360639
1.0490516 0.64880437 2.3383274
1.1491703 0.64943379 2.3405957
1.2494861 0.65006429 2.3428683
1.326447 0.6505481 2.3446121
-0.61281472 0.74449527 2.3002739
-0.55153304 0.75059259 2.3016405
-0.45038044 0.75133938 2.3039322
-0.34907493 0.74992812 2.3062341
-0.24954851 0.74866879 2.3084967
-0.14987236 0.74940115 2.3107553
-0.050000928 0.75013483 2.3130171
0.050066177 0.75086927 2.315284
0.15032972 0.75160611 2.3175545
0.25110349 0.74876773 2.3198502
0.35145032 0.74890471 2.3221269
0.45020288 0.74962556 2.324363
0.54914761 0.75034934 2.3266044
0.65039343 0.75108939 2.3288975
0.74921489 0.75064665 2.3311412
0.84977525 0.74919915 2.3334272
0.95066392 0.74942905 2.3357151
1.0505472 0.74944627 2.3379793
1.1489801 0.7505191 2.3402078
1.2489796 0.75090748 2.3424747
1.3262316 0.74969852 2.3442311
-0.60574019 0.82883465 2.3001146
-0.55144298 0.84997988 2.301265
-0.45030722 0.85082579 2.3035569
-0.34858674 0.85114193 2.3058622
-0.24984658 0.84879649 2.3081098
-0.14984779 0.84918249 2.3103766
-0.049992725 0.85001343 2.3126383
0.050058044 0.85084683 2.3149042
0.15014476 0.85151255 2.3171721
0.25083426 0.84842813 2.3194668
0.35139233 0.84917736 2.3217447
0.45012912 0.84999543 2.323981
0.54905766 0.85081488 2.3262212
0.6498456 0.85105705 2.3285067
0.75011134 0.84917635 2.3307879
0.84911251 0.84910262 2.3330338
0.95093536 0.84994215 2.3353395
1.0508311 0.85076565 2.3376019
1.1496654 0.85101998 2.3398426
1.2507548 0.84946555 2.3421414
1.3260168 0.84881681 2.3438504
-0.54645318 0.9459601 2.3010149
-0.45023513 0.94820845 2.3031886
-0.34891507 0.94915283 2.3054831
-0.24912186 0.94842571 2.3077486
-0.14982341 0.94893146 2.3099992
-0.049984589 0.94985938 2.3122599
0.050049827 0.95079041 2.3145247
0.15021145 0.95129067 2.3167953
0.25070968 0.94848508 2.3190851
0.35133481 0.94941735 2.3213632
0.45005494 0.95033163 2.3235993
0.54896736 0.95124751 2.325839
0.6503284 0.94982409 2.3281438
0.74948168 0.94891244 2.3303952
0.8489725 0.94982964 2.3326483
0.95077842 0.95076847 2.3349538
1.050139 0.9506098 2.3372076
1.1512824 0.94943821 2.3395066
1.2510064 0.94932365 2.3417683
1.325797 0.95001096 2.3434627
0.1941698 1.0000783 2.3176072
0.25068811 1.0006305 2.318887
0.35130489 1.0016136 2.3211653
0.45001653 1.002578 2.3234
0.54891974 1.0035444 2.3256397
0.65396196 1.0026673 2.3280256
0.74941444 1.0034077 2.3301873
0.84889644 1.0043777 2.3324399
0.95069295 1.00537 2.3347449
1.0554063 1.0050862 2.3371208
1.1506324 1.0052155 2.3392801
1.2508909 1.0061913 2.3415504
1.325673 1.0069189 2.3432436
-1.0543721 -0.32251698 2.4225767
-0.95058638 -0.3335734 2.4201448
-0.84574127 -0.33302274 2.429275
-0.75045741 -0.33255732 2.4287474
-0.64995337 -0.33207905 2.4249017
-0.54977894 -0.33159986 2.421756
-0.44876912 -0.33111793 2.4182367
-0.35143399 -0.33059937 2.4285834
-0.25084725 -0.33005032 2.4425814
-0.15051843 -0.3295733 2.4386895
-0.050475664 -0.32909477 2.4355094
0.050377227 -0.3286131 2.4319444
0.14983994 -0.32813907 2.4280779
0.25294891 -0.32759857 2.4365706
0.34906751 -0.32712278 2.4373426
0.42606634 -0.32008415 2.4363422
-1.0653336 -0.24995476 2.4233551
0.43475291 -0.24977371 2.4372211
-1.0658574 -0.15016283 2.424381
0.43431413 -0.15026124 2.4346232
-1.0663602 -0.047773734 2.4239469
0.43378559 -0.053923845 2.4366734
-1.066727 0.047321994 2.4190547
0.43316591 0.050567046 2.4409335
-1.0672122 0.15028833 2.417717
0.43272862 0.15082584 2.4381042
-1.067735 0.25005329 2.4187388
0.43228075 0.25014597 2.4359465
-1.0682663 0.34991646 2.4201057
0.43184856 0.34926245 2.4331455
-1.0687929 0.4498761 2.4212446
0.43127936 0.45229825 2.4355063
-1.069322 0.54994398 2.4224975
0.43070158 0.54936922 2.4395614
-1.0538521 0.64792591 2.423635
-0.94907415 0.66646963 2.4256856
-0.84992045 0.66696304 2.4272468
-0.75061411 0.66745901 2.4292862
-0.65043151 0.66795844 2.4311042
-0.55045557 0.66842574 2.4249156
-0.45031253 0.66892296 2.4262025
-0.3500244 0.66942519 2.4285412
-0.25011823 0.66992307 2.4302611
-0.15062349 0.67041844 2.4318812
-0.050425012 0.67091906 2.4339616
0.050475407 0.67142236 2.435787
0.15042281 0.67191952 2.4372368
0.25192785 0.67241955 2.437439
0.34981558 0.67288375 2.432935
0.42518663 0.64886564 2.435564
