# .PCD v0.7 - Point Cloud Data file format
VERSION 0.7
FIELDS x y z
SIZE 4 4 4
TYPE F F F
COUNT 1 1 1
WIDTH 435
HEIGHT 1
VIEWPOINT 0 0 0 1 0 0 0
POINTS 435
DATA ascii
-1.3123009 -0.64166188 2.2976596
-1.2554733 -0.64120638 2.298959
-1.3122342 -0.55055958 2.2975421
-1.2522416 -0.55041498 2.2989159
-1.3121612 -0.45118555 2.2974153
-1.250826 -0.45146117 2.2988195
-1.1996599 -0.43096599 2.2999632
-1.3120869 -0.34975255 2.297286
-1.2507572 -0.34996608 2.2986896
-1.197226 -0.34318954 2.2999048
-1.3120131 -0.24833117 2.2971554
-1.2506856 -0.24848276 2.2985592
-1.1944418 -0.24508394 2.2998416
-1.3119404 -0.14899056 2.2970288
-1.2506187 -0.14908165 2.2984321
-1.191865 -0.14680067 2.2997727
-1.3118678 -0.049661085 2.296901
-1.25055 -0.04969142 2.2983046
-1.1887516 -0.048069946 2.299716
-1.3117951 0.049657427 2.2967741
-1.2504787 0.049687777 2.2981777
-1.1860467 0.051374845 2.2996488
-1.3117224 0.14896496 2.2966471
-1.2504114 0.1490559 2.2980499
-1.1833607 0.15022093 2.2995825
-1.3117173 0.24999662 2.2965162
-1.2503419 0.24841309 2.2979219
-1.1802303 0.24949595 2.2995253
-1.311504 0.35132724 2.2963898
-1.2502688 0.34982884 2.2977927
-1.1774744 0.35118631 2.2994561
-1.311502 0.45095778 2.2962606
-1.250198 0.45123306 2.2976627
-1.1746348 0.45240125 2.2993906
-1.3114294 0.55022091 2.2961333
-1.2501281 0.55055696 2.2975357
-1.1715893 0.55179787 2.2993319
-1.3113568 0.64947301 2.296006
-1.2500607 0.64986974 2.2974081
-1.1689668 0.65113991 2.2992618
-1.3112838 0.74871397 2.2958794
-1.2499911 0.74917144 2.2972813
-1.1659169 0.7504251 2.2992024
-1.3112098 0.85001135 2.2957494
-1.25034 0.84907907 2.2971447
-1.163124 0.84985125 2.2991383
-1.3111391 0.94716364 2.2956257
-1.2494093 0.94626194 2.2970383
-1.1604465 0.94702739 2.299073
-1.2058879 -0.64127743 2.3000934
-1.1506208 -0.64062113 2.3013575
-1.0499802 -0.64117134 2.3036604
-0.95140195 -0.63981259 2.3059144
-0.85065377 -0.64029378 2.3082199
-0.74932361 -0.63901401 2.3105376
-0.65005136 -0.63964212 2.3128097
-0.55058336 -0.64027178 2.3150866
-0.45092016 -0.64090276 2.317368
-0.35155526 -0.64007151 2.3196404
-0.25100148 -0.6379835 2.3219385
-0.15074636 -0.63861388 2.3242338
-0.050292991 -0.63924581 2.3265319
0.049917098 -0.63945681 2.328826
0.15121116 -0.63841212 2.3311422
0.25015509 -0.6390326 2.3334072
0.34929281 -0.63965386 2.335676
0.45094305 -0.63835108 2.3380003
0.54974973 -0.63726485 2.3402607
0.6499868 -0.63731688 2.3425539
0.74990243 -0.63793904 2.344841
0.85001522 -0.6385625 2.3471324
0.94992518 -0.63883322 2.3494189
1.0486841 -0.63768047 2.3516767
1.1499808 -0.63678116 2.3539937
1.2502736 -0.63680792 2.3562882
1.3298345 -0.63730013 2.35811
-1.2038465 -0.56773502 2.3000448
-1.1505641 -0.5514462 2.3012431
-1.0496976 -0.55042821 2.3035498
-0.95135307 -0.54838282 2.3057976
-0.85041976 -0.54893249 2.3081076
-0.74928641 -0.549483 2.3104224
-0.65001875 -0.55002332 2.3126945
-0.55055571 -0.55056483 2.314971
-0.45089728 -0.55110717 2.3172517
-0.35112533 -0.55156672 2.3195357
-0.25054485 -0.54947644 2.3218343
-0.15073882 -0.54855263 2.3241167
-0.050290477 -0.54909515 2.326416
0.050356817 -0.54963881 2.3287196
0.15120369 -0.55018383 2.3310273
0.25014275 -0.55071831 2.333292
0.34927559 -0.55125374 2.3355608
0.45054775 -0.54987663 2.3378766
0.55023789 -0.55023068 2.3401575
0.65039891 -0.54925585 2.3424494
0.74986511 -0.54919195 2.3447249
0.84997296 -0.54972863 2.3470161
0.95027393 -0.55026639 2.3493118
1.0490944 -0.55043501 2.3515728
1.1493101 -0.55019957 2.3538663
1.250213 -0.54975128 2.3561738
1.32977 -0.55017591 2.3579953
-1.1488957 -0.45093891 2.301151
-1.0503902 -0.4488337 2.3034017
-0.95129943 -0.44865212 2.3056691
-0.85037255 -0.44910157 2.3079798
-0.74924439 -0.449552 2.3102937
-0.64998275 -0.44999421 2.3125651
-0.55052567 -0.45043719 2.314841
-0.45087215 -0.45088074 2.3171222
-0.35102236 -0.45132548 2.3194072
-0.25141174 -0.45117703 2.321687
-0.15042973 -0.44976318 2.3239954
-0.050287668 -0.44847238 2.3262851
0.050354026 -0.44891655 2.3285887
0.15119523 -0.44936144 2.3308961
0.25012875 -0.44979787 2.3331611
0.34925595 -0.45023549 2.3354294
0.45069107 -0.45068306 2.3377514
0.55020714 -0.45112211 2.3400283
0.64946711 -0.45008355 2.342299
0.74982399 -0.44989026 2.3445945
0.84992594 -0.45032978 2.3468859
0.95073622 -0.44982973 2.3491921
1.0507147 -0.44909281 2.3514795
1.1514046 -0.44953287 2.3537831
1.2501434 -0.44996443 2.3560431
1.3296968 -0.45031211 2.3578641
-1.1467406 -0.34943658 2.3010685
-1.0499126 -0.34859091 2.3032825
-0.95124722 -0.3489325 2.3055408
-0.8503257 -0.34928203 2.3078506
-0.74920273 -0.34963211 2.3101649
-0.64994657 -0.34997618 2.3124361
-0.55049497 -0.35032064 2.314712
-0.45084703 -0.35066551 2.3169925
-0.35100293 -0.35101151 2.3192785
-0.25096133 -0.35135776 2.321568
-0.15101479 -0.35136697 2.3238542
-0.050284848 -0.34995726 2.3261573
0.050831012 -0.34958571 2.3284707
0.1511867 -0.34855059 2.330766
0.25011474 -0.34888926 2.3330295
0.34923634 -0.34922862 2.3352976
0.45066559 -0.34957594 2.3376195
0.55017638 -0.34991628 2.3398983
0.64988261 -0.35025728 2.3421798
0.7497822 -0.35059947 2.3444657
0.84987855 -0.35094225 2.3467553
0.9496569 -0.35038504 2.3490386
1.0506567 -0.34951037 2.3513486
1.1513405 -0.34985301 2.3536527
1.2500741 -0.35018849 2.3559122
1.329623 -0.35045949 2.3577328
-1.1433933 -0.24930826 2.3010151
-1.0498543 -0.2489797 2.3031559
-0.95119423 -0.24922389 2.3054132
-0.85027784 -0.24947329 2.3077221
-0.74916112 -0.24972364 2.3100359
-0.64991021 -0.24996907 2.3123071
-0.55046421 -0.25021508 2.3145835
-0.45082176 -0.25046149 2.316864
-0.35098329 -0.25070861 2.3191483
-0.25094727 -0.25095606 2.3214374
-0.15071391 -0.25120401 2.3237319
-0.050282102 -0.25145248 2.3260295
0.049875475 -0.25102046 2.3283205
0.15117843 -0.24985097 2.3306382
0.25010085 -0.25009379 2.3329012
0.34921703 -0.25033695 2.3351691
0.45108247 -0.2490764 2.3374989
0.55014533 -0.24872179 2.3397655
0.64984578 -0.24896437 2.342047
0.74974024 -0.24920732 2.3443322
0.84983069 -0.24945076 2.3466234
0.9501158 -0.24969476 2.3489196
1.0505983 -0.2499392 2.351218
1.1512767 -0.25018412 2.3535221
1.2500042 -0.25042433 2.3557816
1.3295486 -0.25061774 2.3576014
-1.1407678 -0.14978819 2.3009458
-1.0541654 -0.14987193 2.3186376
-0.95097148 -0.1876453 2.3139734
-0.85032403 -0.18780184 2.3149965
-0.74926478 -0.18781582 2.3168771
-0.64980733 -0.18798348 2.3179822
-0.54845381 -0.18742371 2.3251569
-0.45064509 -0.18696146 2.3311925
-0.35083073 -0.1869756 2.3319116
-0.25066477 -0.18703495 2.3328948
-0.15044729 -0.18709554 2.3332226
-0.050162371 -0.18715888 2.333921
0.050199155 -0.18726712 2.3352063
0.15097237 -0.18733333 2.3369334
0.25007337 -0.18745264 2.3383653
0.3492974 -0.1875724 2.3398035
0.46532923 -0.15783958 2.343286
0.55011505 -0.14964658 2.3396361
0.64981014 -0.14979246 2.3419175
0.74969858 -0.14993864 2.3442025
0.84978348 -0.1500852 2.3464947
0.95006269 -0.15023185 2.3487885
1.0505401 -0.15037891 2.3510876
1.1512125 -0.15052631 2.3533907
1.2499352 -0.15067074 2.3556507
1.3294758 -0.15078717 2.3574705
-1.1376331 -0.050288219 2.3008888
-1.0560971 -0.049860071 2.3214729
0.47745222 -0.050350759 2.344676
0.55008459 -0.050582275 2.3395076
0.6497739 -0.050631579 2.3417883
0.74965763 -0.05068101 2.344074
0.84973645 -0.050730508 2.3463628
0.95001012 -0.050780129 2.3486588
1.0504816 -0.050829839 2.3509569
1.1511487 -0.050879616 2.3532608
1.2498659 -0.05092844 2.3555188
1.3294004 -0.050967794 2.3573396
-1.1349283 0.049041148 2.3008215
-1.0561754 0.049865212 2.3216546
0.47737229 0.050339397 2.3442719
0.55005378 0.050578475 2.3393753
0.64973801 0.050627794 2.3416557
0.74961466 0.050677191 2.3439407
0.84968871 0.050726701 2.346231
0.94995701 0.050776292 2.348525
1.050422 0.050825998 2.3508234
1.1510829 0.050875805 2.3531268
1.2497951 0.050924581 2.3553846
1.3293256 0.050963942 2.3572054
-1.1322135 0.14865755 2.300755
-1.0562862 0.14951271 2.3218782
0.47707322 0.14957239 2.3442781
0.55002314 0.14962064 2.3392458
0.64970195 0.14976655 2.3415267
0.74957335 0.14991269 2.3438118
0.84964162 0.15005913 2.3461015
0.9499042 0.15020581 2.3483946
1.0503635 0.15035273 2.3506939
1.1510196 0.15050031 2.3529966
1.2497252 0.15064462 2.3552556
1.3292518 0.15076095 2.3570745
-1.129079 0.248081 2.3006976
-1.0563039 0.24926433 2.3221285
0.47715819 0.24894792 2.3435271
0.5499928 0.24865183 2.3391173
0.64966565 0.24889429 2.341397
0.74953204 0.24913713 2.3436813
0.84959435 0.24938051 2.3459697
0.94985098 0.24962428 2.3482652
1.0503057 0.2498686 2.3505638
1.1509553 0.25011343 2.3528659
1.2496561 0.25035343 2.3551245
1.3291777 0.25054681 2.3569431
-1.1266214 0.34838843 2.3006241
-1.0564693 0.34894884 2.3220749
0.47662395 0.35070407 2.34479
0.54996181 0.3497788 2.3389845
0.64962947 0.35011959 2.3412642
0.74948931 0.35046127 2.343549
0.84954649 0.35080373 2.3458395
0.94979793 0.35114685 2.3481319
1.050158 0.34946483 2.3504303
1.1508914 0.34971535 2.352735
1.249586 0.35005111 2.3549931
1.3291054 0.35032156 2.3568115
-1.1232497 0.44988561 2.3005695
-1.057422 0.4500708 2.3188577
0.47571012 0.45067188 2.3469841
0.54993093 0.4508945 2.3388534
0.64929521 0.45099342 2.3411262
0.74944812 0.44966391 2.3434203
0.84949917 0.45010293 2.3457084
0.94974482 0.4505429 2.3480012
1.050275 0.44895205 2.3503046
1.1508278 0.44930658 2.3526044
1.2495165 0.44973806 2.3548615
1.3290293 0.45008531 2.3566806
-1.120456 0.55017108 2.3005033
-1.0572474 0.55109328 2.3193939
0.47550696 0.55027688 2.3465793
0.54990065 0.54989243 2.3387241
0.64986211 0.55006588 2.3410108
0.74940681 0.54885519 2.3432901
0.84945214 0.54939115 2.3455787
0.94969213 0.54992807 2.3478703
1.0501294 0.55046648 2.3501689
1.1506766 0.55091643 2.3524694
1.2494477 0.5494135 2.3547301
1.328956 0.54983789 2.3565495
-1.1178384 0.64948219 2.3004351
-1.0573485 0.650648 2.3195169
0.47558415 0.64931434 2.3461325
0.54987001 0.64887959 2.3385942
0.64952141 0.64951193 2.3408737
0.74936408 0.65014547 2.3431578
0.84940416 0.65078038 2.3454452
0.94912463 0.65024018 2.3477285
1.0500717 0.64993763 2.350039
1.1507881 0.65047878 2.3523426
1.2493778 0.64907789 2.3546009
1.3288815 0.64957952 2.3564191
-1.1147994 0.74882805 2.3003745
-1.0573875 0.75021416 2.3197682
0.47548413 0.74964958 2.3454864
0.54983926 0.74996293 2.3384626
0.64948481 0.75069159 2.3407423
0.74881232 0.75052488 2.3430152
0.84935737 0.75004679 2.3453164
0.95009816 0.74956667 2.3476224
1.050014 0.74939793 2.3499086
1.150635 0.75013191 2.352211
1.2493072 0.75085264 2.3544679
1.3288084 0.74930948 2.356288
-1.1120181 0.84779185 2.3003104
-1.0469764 0.84628898 2.3110824
-0.95082277 0.84867716 2.3169317
-0.85001653 0.85000175 2.3173442
-0.74913281 0.84848148 2.3202167
-0.64965349 0.8492651 2.3219883
-0.55017567 0.84995818 2.3238418
-0.45045599 0.850604 2.3257675
-0.3510305 0.85062975 2.3277192
-0.25060672 0.85009176 2.3299518
-0.15048626 0.85080302 2.3318629
-0.050201625 0.85151583 2.3337178
0.05025747 0.85223043 2.33566
0.15040848 0.85164255 2.3379109
0.24997702 0.85141021 2.3401349
0.34933466 0.85231191 2.3418727
0.45082334 0.85075855 2.3415396
0.5498082 0.85103196 2.3383312
0.64920735 0.85002482 2.3406069
0.74979377 0.84964722 2.3429086
0.84931028 0.84930146 2.3451862
0.94953334 0.85013127 2.3474786
1.0497898 0.85079211 2.3497715
1.1505709 0.8496787 2.3520796
1.2492378 0.85049409 2.354336
1.3287338 0.84902906 2.3561568
-1.1093429 0.9450953 2.3002453
-1.049154 0.94756317 2.3016191
-0.95055932 0.94849139 2.3038735
-0.84954584 0.94926941 2.306185
-0.74866122 0.94831347 2.3084943
-0.64947569 0.94924575 2.3107619
-0.5500958 0.95017886 2.3130355
-0.45052031 0.95111465 2.3153131
-0.35077742 0.95013982 2.3175955
-0.25077951 0.94881356 2.3198853
-0.15061304 0.94975036 2.3221765
-0.050248444 0.95068944 2.324472
0.049876098 0.95103252 2.3267622
0.15155089 0.94906151 2.3290918
0.24993366 0.94929868 2.3313427
0.34898338 0.95022106 2.3336074
0.45025444 0.95107973 2.3359237
0.54977804 0.94998586 2.338202
0.64964604 0.94905972 2.3404887
0.74923903 0.94972956 2.342767
0.84926242 0.95065713 2.3450541
0.94903415 0.95013052 2.3473384
1.0500656 0.95021957 2.3496482
1.1505073 0.94921434 2.3519483
1.249168 0.95012474 2.3542054
1.3286586 0.95085853 2.3560233
-0.32785285 1.0002717 2.3180554
-0.2507723 1.0010324 2.3198185
-0.15060867 1.0020207 2.322109
-0.050246987 1.003011 2.3244035
0.058364477 1.0031365 2.3268886
0.15107283 1.0029007 2.3290102
0.24992613 1.0038744 2.3312709
0.3489728 1.0048496 2.3335359
0.45131755 1.0057285 2.3358767
0.54976112 1.0047218 2.3381307
0.64939177 1.0057008 2.3404093
0.7492153 1.0066816 2.3426921
0.8492353 1.007665 2.3449795
0.95226204 1.0070856 2.3473377
1.0498621 1.0075209 2.34957
1.1504689 1.0085074 2.3518708
1.249127 1.0094755 2.3541274
1.3286148 1.010254 2.3559451
-1.0375117 -0.14407592 2.4272301
-0.95041108 -0.18051052 2.4141581
-0.84910697 -0.18024258 2.4105752
-0.75029445 -0.17998125 2.4070799
-0.64339632 -0.17966701 2.4253151
-0.55841005 -0.17941989 2.4378986
-0.45109555 -0.17910682 2.4545305
-0.3510738 -0.1788424 2.4509072
-0.24913296 -0.17857292 2.4472141
-0.14970399 -0.1783101 2.4436121
-0.050569482 -0.17804801 2.4400203
0.050468337 -0.17778078 2.4363582
0.15120268 -0.1775136 2.4326966
0.2516346 -0.17724714 2.4290447
0.35922152 -0.17693835 2.4420681
0.4523893 -0.14929068 2.4416649
-1.0394056 -0.050328664 2.4291201
0.46083355 -0.049936399 2.4357991
-1.0396966 0.050347436 2.429801
0.46046788 0.052937839 2.4395053
-1.0399786 0.15020333 2.4301875
0.46010175 0.15013489 2.4439027
-1.0401894 0.24698007 2.4278378
0.45986333 0.24994959 2.4424241
-1.0404272 0.35075101 2.4258285
0.45955944 0.3473106 2.4440854
-1.0406072 0.45071143 2.4217308
0.45913085 0.4502959 2.450525
-1.0408908 0.55034602 2.4222114
0.45889792 0.55045748 2.4487588
-1.0411831 0.65002954 2.4230714
0.4586426 0.64993024 2.4480512
-1.0414706 0.75021261 2.423651
0.45841014 0.74986356 2.4462891
-1.0284926 0.81581116 2.4292266
-0.94800609 0.81951821 2.4274557
-0.85038459 0.81978035 2.4267912
-0.75006729 0.82005215 2.4275954
-0.65012568 0.82032251 2.4281673
-0.55012345 0.820593 2.4288609
-0.44961491 0.82086587 2.4300044
-0.34947225 0.82113671 2.4305778
-0.2497053 0.82140714 2.4316084
-0.14863092 0.82168835 2.437557
-0.050186913 0.82195652 2.4395642
0.050209034 0.82222831 2.4403713
0.15027888 0.82249951 2.4412258
0.25006151 0.8227697 2.4420259
0.35027108 0.82304132 2.4428816
0.43562832 0.82075125 2.4436872
